0, 0, 0, 531, 532, 532, 532, 533, 533, 0, 0, 0, 0, 0, 0, 0, 0, 542, 543, 543, 543, 546, 546, 546, 547, 548, 549, 548, 548, 548, 0, 0, 0, 0, 0, 0, 0, 565, 565, 565, 565, 565, 565, 565, 566, 569, 570, 571, 572, 573, 573, 574, 575, 576, 576, 577, 578, 580, 581, 583, 583, 584, 585, 586, 586, 587, 588, 589, 590, 591, 592, 593, 593, 594, 594, 595, 596, 596, 602, 602, 603, 603, 606, 606, 607, 609, 610, 611, 611, 612, 612, 613, 613, 614, 620, 621, 621, 622, 623, 625, 628, 629, 630, 630, 630, 630, 630, 0, 0, 0, 0, 0, 0, 0, 0, 0, 0, 0, 0, 0, 0, 0, 0, 0, 0, 0, 0, 0, 0, 0, 0, 0, 0, 0, 0, 0, 0, 0, 0, 0, 0, 0, 0, 0, 0, 0, 0, 0, 0, 0, 0, 0, 0, 0, 0, 0, 0, 0, 0, 0, 0, 0, 0, 0, 0, 0, 0, 0, 0, 0, 0, 0, 0, 0, 0, 0, 0, 0, 0, 0, 0, 0, 0, 0, 0, 0, 0, 0, 0, 0, 0, 0, 0, 0, 0, 0, 0, 0, 0, 0, 0, 0, 0, 0, 0, 0, 0, 0, 0, 0, 0, 0, 0, 0, 0, 0, 0, 0, 0, 0, 0, 0, 0, 0, 0, 0, 0, 0, 0, 0, 0, 0, 0, 0, 0, 0, 0, 0, 0, 0, 0, 0, 0, 0, 0, 0, 0, 0, 0, 0, 0, 0, 0, 0, 0, 0, 0, 0, 0, 0, 0, 0, 0, 0, 0, 0, 0, 0, 0, 0, 0, 0, 0, 0, 0, 0, 0, 0, 0, 0, 0, 0, 0, 0, 0, 0, 0, 0, 0, 0, 0, 0, 0, 0, 0, 0, 0, 0, 0, 0, 0, 0, 0, 0, 0, 0, 0, 0, 0, 0, 0, 0, 0, 0, 0, 0, 0, 0, 0, 0, 0, 0, 0, 0, 0, 0, 0, 0, 0, 0, 0, 0, 0, 0, 1101, 1101, 1105, 1108, 1108, 1112, 1115, 1119, 1123, 1130, 1130, 1134, 1134, 1138, 1138, 1138, 1141, 1141, 1141, 1138, 1141, 1141, 1141, 1149, 1149, 1193, 1193, 1193, 1197, 1202, 1206, 1206, 1210, 1219, 1223, 1232, 1232, 1236, 1241, 1245, 1250, 1255, 1264, 1268, 1268, 1268, 1273, 1273, 1278, 1283, 1288, 1297, 1302, 1312, 1317, 1322, 1328, 1333, 1338, 1338, 1349, 1349, 1354, 1354, 1359, 1376, 1387, 1387, 1392, 1398, 1404, 1410, 1415, 1415, 1421, 1427, 1433, 1439, 1439, 1445, 1445, 1452, 1470, 1483, 1489, 1489, 1489, 1496, 1503, 1509, 1516, 1523, 1536, 1543, 1543, 1550, 1557, 1564, 1572, 1572, 1579, 1586, 1586, 1594, 1601, 1616, 1624, 1639, 1647, 1655, 1655, 1663, 1663, 1671, 1680, 1688, 1696, 1705, 1722, 1731, 1739, 1748, 1757, 1766, 1766, 1785, 1794, 1804, 1813, 1823, 1823, 1823, 1833, 1843, 1863, 1883, 1894, 1904, 1915, 1915, 1926, 1936, 1947, 1970, 1981, 1981, 1993, 2005, 2016, 2028, 2040, 2053, 2065, 2078, 2090, 2103, 2103, 2116, 2129, 2156, 2170, 2184, 2198, 2212, 2226, 2241, 2241, 2256, 2271, 2286, 2301, 2317, 2333, 2349, 2365, 2381, 2398, 2398, 2398, 2415, 2432, 2450, 2467, 2503, 2541, 2560, 2579, 2579, 2598, 2639, 2639, 2639, 2659, 2723, 2723, 2723, 2744, 2767, 2767, 2812, 2812, 2812, 2835, 2859, 2908, 2908, 2933, 2933, 2984, 3010, 3037, 3064, 3092, 3120, 3120, 3149, 3178, 3178, 3238, 3269, 3300, 3333, 3365, 3399, 3399, 3433, 3468, 3503, 3503, 3539, 3576, 3653, 3653, 3692, 3692, 3732, 3732, 3774, 3816, 3859, 3859, 3948, 3994, 3994, 3994, 3994, 4041, 4041, 4041, 3994, 3994, 3994, 4041, 3994, 3994, 3948, 3994, 3994, 3994, 6375, 6375, 6038, 6038, 5933, 5832, 5734, 5734, 5640, 5640, 5640, 5640, 5640, 5640, 5640, 5640, 5734, 5832, 5832, 5734, 5734, 5640, 5734, 5640, 5640, 5640, 5640, 5640, 5640, 5640, 5734, 5734, 5734, 5734, 5734, 5734, 5734, 5734, 5640, 0, 0, 0, 0, 0, 0, 0, 0
0, 529, 531, 531, 531, 532, 532, 533, 534, 534, 0, 0, 0, 0, 0, 0, 0, 543, 543, 543, 543, 546, 546, 546, 546, 548, 548, 548, 0, 0, 0, 0, 0, 0, 0, 0, 0, 565, 565, 565, 565, 565, 565, 565, 566, 570, 571, 572, 572, 573, 573, 574, 575, 576, 576, 577, 578, 580, 581, 583, 584, 584, 585, 586, 586, 586, 587, 589, 590, 592, 593, 594, 593, 594, 595, 596, 596, 596, 603, 603, 603, 604, 606, 606, 607, 609, 610, 611, 611, 612, 612, 613, 613, 616, 620, 621, 621, 622, 623, 624, 627, 628, 629, 629, 629, 629, 630, 0, 0, 0, 0, 0, 0, 0, 0, 0, 0, 0, 0, 0, 0, 0, 0, 0, 0, 0, 0, 0, 0, 0, 0, 0, 0, 0, 0, 0, 0, 0, 0, 0, 0, 0, 0, 0, 0, 0, 0, 0, 0, 0, 0, 0, 0, 0, 0, 0, 0, 0, 0, 0, 0, 0, 0, 0, 0, 0, 0, 0, 0, 0, 0, 0, 0, 0, 0, 0, 0, 0, 0, 0, 0, 0, 0, 0, 0, 0, 0, 0, 0, 0, 0, 0, 0, 0, 0, 0, 0, 0, 0, 0, 0, 0, 0, 0, 0, 0, 0, 0, 0, 0, 0, 0, 0, 0, 0, 0, 0, 0, 0, 0, 0, 0, 0, 0, 0, 0, 0, 0, 0, 0, 0, 0, 0, 0, 0, 0, 0, 0, 0, 0, 0, 0, 0, 0, 0, 0, 0, 0, 0, 0, 0, 0, 0, 0, 0, 0, 0, 0, 0, 0, 0, 0, 0, 0, 0, 0, 0, 0, 0, 0, 0, 0, 0, 0, 0, 0, 0, 0, 0, 0, 0, 0, 0, 0, 0, 0, 0, 0, 0, 0, 0, 0, 0, 0, 0, 0, 0, 0, 0, 0, 0, 0, 0, 0, 0, 0, 0, 0, 0, 0, 0, 0, 0, 0, 0, 0, 0, 0, 0, 0, 0, 0, 0, 0, 0, 0, 0, 0, 0, 0, 0, 0, 0, 1101, 1101, 1105, 1105, 1105, 1108, 1112, 1115, 1119, 1123, 1130, 1130, 1134, 1134, 1138, 1141, 1141, 1145, 1145, 1145, 1145, 1145, 1145, 1145, 1149, 1149, 1197, 1197, 1193, 1197, 1197, 1202, 1206, 1210, 1219, 1223, 1227, 1232, 1236, 1241, 1245, 1250, 1255, 1264, 1268, 1268, 1273, 1273, 1273, 1278, 1283, 1288, 1297, 1302, 1312, 1312, 1317, 1322, 1333, 1338, 1343, 1349, 1349, 1354, 1354, 1359, 1376, 1387, 1387, 1392, 1398, 1404, 1410, 1415, 1415, 1421, 1427, 1433, 1439, 1439, 1445, 1452, 1458, 1470, 1483, 1489, 1489, 1489, 1496, 1503, 1509, 1516, 1523, 1536, 1543, 1543, 1550, 1557, 1564, 1572, 1572, 1579, 1586, 1594, 1594, 1609, 1616, 1624, 1639, 1647, 1655, 1655, 1663, 1663, 1671, 1680, 1688, 1696, 1705, 1722, 1731, 1739, 1748, 1757, 1766, 1776, 1794, 1804, 1804, 1813, 1813, 1823, 1823, 1833, 1853, 1863, 1883, 1894, 1904, 1915, 1926, 1926, 1936, 1947, 1970, 1981, 1981, 1993, 2005, 2016, 2028, 2040, 2053, 2065, 2078, 2090, 2103, 2103, 2116, 2129, 2156, 2170, 2170, 2198, 2198, 2212, 2241, 2241, 2256, 2271, 2286, 2301, 2317, 2333, 2349, 2365, 2381, 2381, 2398, 2398, 2415, 2450, 2485, 2485, 2522, 2541, 2560, 2579, 2579, 2598, 2639, 2639, 2639, 2659, 2723, 2723, 2723, 2744, 2767, 2789, 2812, 2812, 2812, 2835, 2859, 2908, 2908, 2933, 2984, 2984, 3010, 3037, 3064, 3092, 3120, 3120, 3149, 3178, 3178, 3238, 3238, 3269, 3300, 3333, 3365, 3399, 3433, 3433, 3503, 3503, 3539, 3614, 3653, 3692, 3692, 3732, 3692, 3774, 3774, 3816, 3816, 3859, 3948, 3948, 3994, 3994, 3994, 3994, 4041, 4041, 3994, 3994, 3994, 3994, 3994, 3994, 3994, 3994, 3948, 3903, 3859, 3859, 6038, 5933, 5933, 5832, 5734, 5734, 5734, 5640, 5640, 5640, 5640, 5640, 5640, 5640, 5734, 5734, 5734, 5734, 5640, 5640, 5640, 5640, 5640, 5640, 5640, 5640, 5640, 5640, 5734, 5734, 5734, 5734, 5734, 5734, 5734, 5640, 5640, 0, 0, 0, 0, 0, 0, 0, 0
0, 529, 532, 530, 531, 532, 532, 533, 533, 534, 534, 535, 0, 536, 0, 0, 0, 543, 543, 543, 543, 543, 546, 546, 546, 548, 548, 547, 547, 0, 0, 0, 0, 0, 0, 556, 558, 562, 565, 564, 564, 565, 565, 565, 566, 570, 571, 572, 573, 573, 574, 574, 576, 576, 576, 578, 579, 580, 581, 583, 584, 584, 585, 585, 586, 586, 587, 588, 590, 591, 593, 593, 593, 594, 595, 596, 597, 600, 603, 603, 603, 604, 606, 607, 608, 609, 610, 611, 612, 612, 613, 613, 614, 616, 620, 621, 621, 622, 623, 624, 625, 627, 629, 629, 629, 629, 630, 0, 0, 0, 0, 0, 0, 0, 0, 0, 0, 0, 0, 0, 0, 0, 0, 0, 0, 0, 0, 0, 0, 0, 0, 0, 0, 0, 0, 0, 0, 0, 0, 0, 0, 0, 0, 0, 0, 0, 0, 0, 0, 0, 0, 0, 0, 0, 0, 0, 0, 0, 0, 0, 0, 0, 0, 0, 0, 0, 0, 0, 0, 0, 0, 0, 0, 0, 0, 0, 0, 0, 0, 0, 0, 0, 0, 0, 0, 0, 0, 0, 0, 0, 0, 0, 0, 0, 0, 0, 0, 0, 0, 0, 0, 0, 0, 0, 0, 0, 0, 0, 0, 0, 0, 0, 0, 0, 0, 0, 0, 0, 0, 0, 0, 0, 0, 0, 0, 0, 0, 0, 0, 0, 0, 0, 0, 0, 0, 0, 0, 0, 0, 0, 0, 0, 0, 0, 0, 0, 0, 0, 0, 0, 0, 0, 0, 0, 0, 0, 0, 0, 0, 0, 0, 0, 0, 0, 0, 0, 0, 0, 0, 0, 0, 0, 0, 0, 0, 0, 0, 0, 0, 0, 0, 0, 0, 0, 0, 0, 0, 0, 0, 0, 0, 0, 0, 0, 0, 0, 0, 0, 0, 0, 0, 0, 0, 0, 0, 0, 0, 0, 0, 0, 0, 0, 0, 0, 0, 0, 0, 0, 0, 0, 0, 0, 0, 0, 0, 0, 0, 0, 0, 0, 0, 0, 0, 1101, 1101, 1101, 1101, 1105, 1108, 1112, 1115, 1123, 1126, 1130, 1134, 1138, 1138, 1138, 1141, 1145, 1145, 1149, 1149, 1145, 1149, 1149, 1145, 1149, 1149, 1193, 1197, 1193, 1197, 1202, 1202, 1206, 1210, 1219, 1223, 1232, 1232, 1236, 1245, 1245, 1250, 1255, 1264, 1268, 1268, 1268, 1273, 1273, 1278, 1283, 1288, 1302, 1302, 1312, 1312, 1317, 1322, 1333, 1338, 1338, 1349, 1349, 1354, 1354, 1359, 1376, 1387, 1387, 1392, 1398, 1404, 1410, 1415, 1415, 1421, 1433, 1439, 1439, 1439, 1445, 1452, 1464, 1477, 1483, 1489, 1489, 1489, 1496, 1503, 1509, 1516, 1523, 1536, 1543, 1543, 1550, 1557, 1564, 1572, 1579, 1579, 1586, 1586, 1594, 1601, 1616, 1624, 1639, 1655, 1655, 1663, 1663, 1663, 1671, 1680, 1688, 1705, 1713, 1722, 1731, 1731, 1739, 1757, 1766, 1776, 1794, 1804, 1804, 1813, 1813, 1823, 1833, 1843, 1853, 1863, 1883, 1894, 1904, 1915, 1926, 1936, 1936, 1947, 1970, 1970, 1981, 1993, 2005, 2016, 2028, 2040, 2053, 2065, 2078, 2090, 2103, 2116, 2129, 2143, 2156, 2170, 2170, 2198, 2198, 2212, 2226, 2241, 2256, 2271, 2286, 2301, 2317, 2333, 2349, 2365, 2365, 2381, 2398, 2398, 2415, 2450, 2485, 2503, 2541, 2541, 2560, 2579, 2579, 2598, 2618, 2639, 2639, 2659, 2723, 2723, 2744, 2744, 2767, 2789, 2789, 2812, 2812, 2835, 2859, 2883, 2933, 2958, 2984, 2984, 3010, 3037, 3092, 3120, 3120, 3149, 3149, 3178, 3208, 3238, 3269, 3300, 3300, 3333, 3365, 3399, 3433, 3433, 3433, 3503, 3539, 3614, 3653, 3692, 3732, 3732, 3774, 3816, 3816, 3859, 3816, 3859, 3903, 3948, 3994, 3994, 3994, 3994, 4041, 4041, 3994, 3994, 3994, 3994, 3994, 3994, 3994, 3994, 3994, 3903, 0, 0, 6259, 6259, 5832, 5832, 5734, 5734, 5640, 5640, 5548, 5640, 5640, 5640, 5640, 5640, 5734, 5734, 5734, 5640, 5640, 5640, 5640, 5734, 5640, 5734, 5734, 5640, 5640, 5734, 5734, 5734, 5734, 5734, 5734, 5734, 5933, 5832, 5832, 0, 0, 0, 0, 0, 0, 0, 0
0, 0, 531, 531, 531, 532, 532, 533, 533, 534, 534, 535, 534, 536, 536, 0, 542, 542, 543, 542, 543, 542, 545, 546, 546, 548, 549, 0, 548, 548, 0, 0, 0, 0, 556, 557, 559, 561, 564, 564, 564, 565, 565, 565, 567, 570, 571, 572, 572, 573, 573, 574, 575, 576, 576, 578, 580, 581, 582, 583, 584, 584, 585, 586, 586, 586, 588, 589, 590, 592, 593, 594, 593, 594, 595, 596, 597, 599, 603, 603, 603, 604, 607, 607, 608, 609, 610, 611, 612, 612, 613, 614, 615, 616, 619, 620, 621, 622, 622, 623, 625, 625, 628, 629, 629, 629, 630, 631, 0, 0, 0, 0, 0, 644, 644, 643, 643, 644, 646, 0, 0, 0, 652, 654, 0, 658, 658, 659, 0, 0, 0, 0, 0, 0, 0, 0, 0, 0, 0, 0, 0, 0, 0, 0, 0, 0, 0, 0, 0, 0, 0, 0, 0, 0, 0, 0, 0, 0, 0, 0, 0, 0, 0, 0, 0, 0, 0, 0, 0, 0, 0, 0, 0, 0, 0, 0, 0, 0, 0, 0, 0, 0, 0, 0, 0, 0, 0, 0, 0, 0, 0, 0, 0, 0, 0, 0, 0, 0, 0, 0, 0, 0, 0, 0, 0, 0, 0, 0, 0, 0, 0, 0, 0, 0, 0, 0, 0, 0, 0, 0, 0, 0, 0, 0, 0, 0, 0, 0, 0, 0, 0, 0, 0, 0, 0, 0, 0, 0, 0, 0, 0, 0, 0, 0, 0, 0, 0, 0, 0, 0, 0, 0, 0, 0, 0, 0, 0, 0, 0, 0, 0, 0, 0, 0, 0, 0, 0, 0, 0, 0, 0, 0, 0, 0, 0, 0, 0, 0, 0, 0, 0, 0, 0, 0, 0, 0, 0, 0, 0, 0, 0, 0, 0, 0, 0, 0, 0, 0, 0, 0, 0, 0, 0, 0, 0, 0, 0, 0, 0, 0, 0, 0, 0, 0, 0, 0, 0, 0, 0, 0, 0, 0, 0, 0, 0, 0, 0, 0, 0, 0, 0, 1094, 1097, 1097, 1101, 1101, 1101, 1105, 1108, 1108, 1115, 1119, 1126, 1130, 1134, 1138, 1138, 1138, 1141, 1145, 1145, 1149, 1145, 1145, 1145, 1145, 1141, 1141, 1197, 1197, 1197, 1197, 1197, 1202, 1202, 1206, 1210, 1219, 1227, 1232, 1236, 1236, 1245, 1245, 1250, 1255, 1259, 1264, 1268, 1273, 1273, 1278, 1278, 1283, 1288, 1302, 1307, 1312, 1317, 1317, 1328, 1333, 1338, 1343, 1349, 1349, 1354, 1354, 1359, 1381, 1392, 1392, 1392, 1398, 1404, 1410, 1415, 1415, 1421, 1433, 1439, 1439, 1439, 1445, 1452, 1458, 1477, 1483, 1489, 1496, 1496, 1503, 1509, 1509, 1516, 1523, 1536, 1543, 1543, 1557, 1557, 1572, 1572, 1579, 1579, 1586, 1594, 1594, 1601, 1609, 1624, 1639, 1647, 1655, 1655, 1663, 1663, 1671, 1680, 1696, 1705, 1713, 1722, 1731, 1731, 1739, 1748, 1766, 1785, 1794, 1804, 1804, 1813, 1813, 1823, 1833, 1843, 1863, 1873, 1883, 1894, 1904, 1915, 1926, 1926, 1936, 1947, 1959, 1970, 1981, 2005, 2005, 2016, 2028, 2040, 2053, 2065, 2065, 2090, 2090, 2116, 2129, 2143, 2156, 2170, 2170, 2184, 2198, 2212, 2226, 2241, 2241, 2256, 2271, 2301, 2317, 2333, 2349, 2365, 2365, 2381, 2398, 2398, 2415, 2450, 2485, 2503, 2522, 2541, 2541, 2579, 2579, 2598, 2639, 2639, 2659, 2680, 2701, 2723, 2744, 2744, 2767, 2789, 2789, 2812, 2812, 2835, 2883, 2883, 2933, 2958, 2984, 2984, 3010, 3037, 3092, 3120, 3120, 3149, 3149, 3178, 3208, 3238, 3269, 3300, 3300, 3333, 3365, 3399, 3433, 3433, 3468, 3503, 3576, 3614, 3653, 3692, 3732, 3732, 3774, 3816, 3816, 3859, 3859, 3859, 3903, 3903, 3994, 3948, 3994, 3994, 3994, 3994, 4041, 3994, 3994, 3994, 3994, 3994, 3994, 3994, 3994, 3994, 0, 0, 0, 0, 0, 5640, 5640, 5640, 5640, 5734, 5640, 5734, 5640, 5640, 5640, 5640, 5640, 5640, 5734, 5640, 5640, 5640, 5640, 5640, 5734, 5734, 5734, 5640, 5640, 5734, 5734, 5734, 5734, 5734, 5734, 5734, 5734, 5734, 5832, 0, 0, 0, 0, 0, 0, 0, 0
0, 0, 532, 532, 532, 533, 532, 533, 534, 534, 534, 534, 534, 535, 537, 539, 540, 542, 543, 542, 542, 542, 545, 546, 0, 0, 0, 0, 549, 549, 0, 0, 0, 0, 559, 559, 560, 562, 564, 564, 564, 565, 565, 565, 567, 570, 571, 572, 572, 572, 573, 573, 575, 575, 576, 579, 580, 582, 583, 584, 584, 585, 586, 586, 586, 587, 588, 588, 590, 591, 593, 593, 593, 594, 595, 596, 596, 597, 602, 603, 603, 606, 607, 607, 608, 609, 610, 611, 612, 612, 613, 614, 615, 616, 618, 619, 620, 621, 622, 623, 625, 627, 628, 628, 628, 629, 630, 630, 630, 0, 0, 0, 642, 644, 644, 644, 644, 644, 646, 0, 649, 652, 652, 653, 654, 657, 657, 657, 658, 659, 0, 0, 0, 0, 0, 0, 0, 0, 0, 0, 678, 0, 0, 0, 0, 0, 0, 0, 0, 0, 0, 0, 0, 0, 0, 0, 0, 0, 0, 0, 0, 0, 0, 0, 0, 0, 0, 0, 0, 0, 0, 0, 0, 0, 0, 0, 0, 0, 0, 0, 0, 0, 0, 0, 0, 0, 0, 0, 0, 0, 0, 0, 0, 0, 0, 0, 0, 0, 0, 0, 0, 0, 0, 0, 0, 0, 0, 0, 0, 0, 0, 0, 0, 0, 0, 0, 0, 0, 0, 0, 0, 0, 0, 0, 0, 0, 0, 0, 0, 0, 0, 0, 0, 0, 0, 0, 0, 0, 0, 0, 0, 0, 0, 0, 0, 0, 0, 0, 0, 0, 0, 0, 0, 0, 0, 0, 0, 0, 0, 0, 0, 0, 0, 0, 0, 0, 0, 0, 0, 0, 0, 0, 0, 0, 0, 0, 0, 0, 0, 0, 0, 0, 0, 0, 0, 0, 0, 0, 0, 0, 0, 0, 0, 0, 0, 0, 0, 0, 0, 0, 0, 0, 0, 0, 0, 0, 0, 0, 0, 0, 0, 0, 0, 0, 0, 0, 0, 0, 0, 0, 0, 0, 0, 0, 0, 0, 0, 0, 0, 0, 0, 0, 0, 1101, 1101, 1101, 1105, 1105, 1108, 1112, 1115, 1119, 1126, 1126, 1130, 1134, 1138, 1138, 1141, 1141, 1145, 1145, 1145, 1141, 1145, 1145, 1145, 1197, 1197, 1197, 1197, 1197, 1197, 1202, 1202, 1206, 1210, 1219, 1223, 1227, 1232, 1236, 1245, 1245, 1250, 1255, 1259, 1264, 1268, 1268, 1273, 1278, 1278, 1283, 1292, 1302, 1307, 1312, 1317, 1322, 1328, 1333, 1338, 1343, 1349, 1354, 1354, 1359, 1365, 1381, 1387, 1392, 1392, 1398, 1404, 1410, 1415, 1421, 1427, 1433, 1433, 1439, 1439, 1445, 1452, 1458, 1470, 1483, 1489, 1496, 1496, 1503, 1509, 1509, 1516, 1523, 1536, 1543, 1543, 1557, 1557, 1572, 1579, 1579, 1586, 1586, 1594, 1601, 1601, 1616, 1632, 1639, 1647, 1655, 1655, 1663, 1663, 1671, 1680, 1696, 1705, 1722, 1731, 1731, 1731, 1739, 1748, 1766, 1785, 1794, 1804, 1804, 1813, 1823, 1833, 1843, 1853, 1863, 1873, 1883, 1894, 1894, 1904, 1915, 1926, 1936, 1947, 1970, 1981, 1981, 2005, 2016, 2016, 2028, 2040, 2053, 2053, 2065, 2078, 2090, 2103, 2129, 2143, 2156, 2170, 2170, 2184, 2198, 2198, 2226, 2241, 2256, 2271, 2286, 2317, 2333, 2349, 2349, 2365, 2365, 2381, 2381, 2415, 2432, 2467, 2485, 2503, 2522, 2522, 2541, 2560, 2579, 2618, 2639, 2639, 2659, 2680, 2701, 2723, 2744, 2744, 2767, 2767, 2789, 2789, 2812, 2835, 2883, 2908, 2933, 2958, 2984, 2984, 3010, 3037, 3064, 3120, 3120, 3149, 3178, 3178, 3208, 3238, 3269, 3300, 3333, 3333, 3365, 3365, 3433, 3433, 3468, 3503, 3576, 3614, 3653, 3692, 3692, 3732, 3774, 3816, 3816, 3859, 3859, 3859, 3903, 3903, 3994, 3948, 3948, 3948, 3994, 3994, 3994, 3994, 3994, 3994, 3994, 3994, 3994, 3994, 3994, 3948, 0, 0, 0, 0, 0, 5640, 5640, 5640, 5734, 5734, 5734, 5832, 5734, 5640, 5640, 5832, 5640, 5640, 5640, 5640, 5734, 5734, 5734, 5734, 5734, 5734, 5832, 5734, 5734, 5734, 5734, 5734, 5734, 5734, 5640, 5734, 5734, 5734, 5832, 0, 0, 0, 0, 0, 0, 0, 0
0, 0, 0, 532, 532, 532, 532, 533, 533, 534, 534, 534, 534, 534, 537, 539, 541, 542, 543, 542, 543, 542, 542, 546, 0, 0, 0, 0, 0, 0, 0, 0, 0, 0, 560, 560, 561, 563, 565, 564, 564, 565, 565, 565, 567, 570, 571, 572, 572, 572, 572, 573, 575, 576, 576, 580, 580, 582, 582, 584, 584, 585, 586, 586, 586, 587, 588, 589, 590, 591, 592, 593, 593, 594, 595, 596, 597, 597, 602, 603, 603, 606, 607, 608, 608, 609, 610, 611, 612, 612, 613, 614, 615, 616, 618, 620, 620, 622, 622, 623, 625, 627, 628, 628, 628, 629, 630, 630, 631, 632, 0, 641, 641, 643, 643, 643, 643, 644, 646, 646, 649, 650, 650, 652, 652, 654, 655, 657, 657, 657, 657, 0, 0, 0, 0, 0, 0, 0, 0, 676, 676, 0, 0, 0, 0, 0, 0, 0, 0, 0, 0, 0, 0, 0, 0, 0, 0, 0, 0, 0, 0, 0, 0, 0, 0, 0, 0, 0, 0, 0, 0, 0, 0, 0, 0, 0, 0, 0, 0, 0, 0, 0, 0, 0, 0, 0, 0, 0, 0, 0, 0, 0, 0, 0, 0, 0, 0, 0, 0, 0, 0, 0, 0, 0, 0, 0, 0, 0, 0, 0, 0, 0, 0, 0, 0, 0, 0, 0, 0, 0, 0, 0, 0, 0, 0, 0, 0, 0, 0, 0, 0, 0, 0, 0, 0, 0, 0, 0, 0, 0, 0, 0, 0, 0, 0, 0, 0, 0, 0, 0, 0, 0, 0, 0, 0, 0, 0, 0, 0, 0, 0, 0, 0, 0, 0, 0, 0, 0, 0, 0, 0, 0, 0, 0, 0, 0, 0, 0, 0, 0, 0, 0, 0, 0, 0, 0, 0, 0, 0, 0, 0, 0, 0, 0, 0, 0, 0, 0, 0, 0, 0, 0, 0, 0, 0, 0, 0, 0, 0, 0, 0, 0, 0, 0, 0, 0, 0, 0, 0, 0, 0, 0, 0, 0, 0, 0, 0, 0, 0, 0, 0, 0, 1105, 1105, 1105, 1105, 1105, 1108, 1108, 1112, 1115, 1119, 1123, 1126, 1126, 1134, 1138, 1138, 1145, 1145, 1149, 1149, 1149, 1145, 1145, 1145, 1145, 1197, 1197, 1197, 1197, 1197, 1197, 1202, 1206, 1210, 1214, 1219, 1223, 1227, 1232, 1236, 1245, 1245, 1250, 1255, 1264, 1264, 1268, 1273, 1278, 1278, 1283, 1288, 1297, 1302, 1307, 1312, 1317, 1322, 1328, 1333, 1338, 1343, 1349, 1354, 1354, 1359, 1365, 1376, 1387, 1392, 1398, 1398, 1404, 1410, 1415, 1421, 1427, 1433, 1439, 1439, 1439, 1445, 1452, 1464, 1477, 1483, 1489, 1496, 1496, 1503, 1509, 1509, 1516, 1523, 1536, 1543, 1550, 1557, 1564, 1572, 1579, 1579, 1586, 1594, 1594, 1601, 1609, 1616, 1624, 1632, 1647, 1647, 1655, 1663, 1663, 1671, 1688, 1696, 1713, 1722, 1731, 1731, 1731, 1739, 1748, 1776, 1794, 1804, 1804, 1813, 1813, 1823, 1833, 1843, 1853, 1863, 1873, 1883, 1883, 1894, 1904, 1915, 1926, 1936, 1947, 1959, 1970, 1981, 2005, 2016, 2028, 2028, 2040, 2053, 2065, 2065, 2078, 2090, 2103, 2116, 2143, 2156, 2170, 2170, 2184, 2198, 2198, 2212, 2241, 2256, 2271, 2301, 2317, 2333, 2349, 2349, 2365, 2365, 2381, 2381, 2415, 2432, 2467, 2485, 2503, 2522, 2522, 2541, 2579, 2598, 2618, 2639, 2659, 2680, 2701, 2701, 2723, 2744, 2744, 2767, 2767, 2789, 2812, 2835, 2859, 2883, 2908, 2933, 2958, 2984, 2984, 3010, 3037, 3037, 3120, 3120, 3149, 3149, 3208, 3238, 3269, 3269, 3269, 3300, 3365, 3365, 3399, 3433, 3433, 3468, 3503, 3576, 3614, 3653, 3692, 3732, 3732, 3774, 3816, 3816, 3859, 3859, 3903, 3903, 3903, 3994, 3948, 3948, 3994, 4041, 3994, 3994, 3994, 3994, 3994, 3994, 4041, 4041, 4041, 4041, 3994, 0, 0, 0, 0, 0, 0, 5734, 5734, 5734, 5832, 5734, 5832, 5734, 5734, 5832, 5832, 5832, 5640, 5640, 5640, 5734, 5832, 5832, 5832, 5832, 5832, 5832, 5832, 5832, 5832, 5832, 5734, 5734, 5734, 5640, 5734, 5734, 5734, 5832, 0, 0, 0, 0, 0, 0, 0, 0
0, 0, 0, 531, 532, 532, 532, 533, 534, 534, 535, 535, 535, 535, 540, 540, 542, 542, 543, 543, 543, 543, 0, 0, 0, 0, 0, 0, 0, 0, 0, 0, 0, 0, 560, 560, 560, 563, 565, 564, 564, 565, 565, 567, 568, 570, 571, 571, 572, 572, 572, 573, 575, 576, 576, 580, 580, 581, 582, 583, 584, 585, 586, 586, 587, 587, 588, 589, 590, 591, 593, 594, 594, 595, 595, 596, 598, 598, 602, 603, 603, 604, 606, 607, 608, 609, 610, 612, 613, 613, 614, 614, 615, 616, 618, 619, 622, 622, 623, 623, 624, 627, 628, 628, 628, 629, 630, 630, 631, 632, 635, 640, 640, 641, 642, 642, 643, 644, 646, 647, 648, 650, 650, 650, 652, 654, 655, 657, 658, 658, 658, 659, 659, 0, 0, 0, 0, 0, 675, 675, 675, 675, 675, 676, 0, 0, 0, 0, 0, 0, 0, 0, 0, 0, 0, 0, 0, 0, 0, 0, 0, 0, 0, 0, 0, 0, 0, 0, 0, 0, 0, 0, 0, 0, 0, 0, 0, 0, 0, 0, 0, 0, 0, 0, 0, 0, 0, 0, 0, 0, 0, 0, 0, 0, 0, 0, 0, 0, 0, 0, 0, 0, 0, 0, 0, 0, 0, 0, 0, 0, 0, 0, 0, 0, 0, 0, 0, 0, 0, 0, 0, 0, 0, 0, 0, 0, 0, 0, 0, 0, 0, 0, 0, 0, 0, 0, 0, 0, 0, 0, 0, 0, 0, 0, 0, 0, 0, 0, 0, 0, 0, 0, 0, 0, 0, 0, 0, 0, 0, 0, 0, 0, 0, 0, 0, 0, 0, 0, 0, 0, 0, 0, 0, 0, 0, 0, 0, 0, 0, 0, 0, 0, 0, 0, 0, 0, 0, 0, 0, 0, 0, 0, 0, 0, 0, 0, 0, 0, 0, 0, 0, 0, 0, 0, 0, 0, 0, 0, 0, 0, 0, 0, 0, 0, 0, 0, 0, 0, 0, 0, 0, 0, 0, 0, 0, 0, 0, 0, 0, 0, 0, 1101, 1101, 1101, 1101, 1105, 1105, 1108, 1108, 1112, 1115, 1119, 1123, 1126, 1126, 1134, 1138, 1141, 1145, 1149, 1149, 1149, 1149, 1149, 1149, 1149, 1149, 1189, 1197, 1197, 1197, 1197, 1197, 1202, 1206, 1210, 1214, 1219, 1223, 1227, 1232, 1236, 1241, 1245, 1250, 1255, 1264, 1264, 1268, 1273, 1278, 1278, 1283, 1292, 1297, 1302, 1307, 1312, 1312, 1317, 1322, 1333, 1338, 1343, 1349, 1354, 1354, 1359, 1365, 1370, 1387, 1392, 1398, 1404, 1404, 1415, 1415, 1421, 1427, 1433, 1439, 1439, 1445, 1445, 1452, 1458, 1470, 1483, 1489, 1496, 1496, 1503, 1509, 1509, 1516, 1523, 1529, 1543, 1550, 1557, 1564, 1572, 1579, 1579, 1586, 1594, 1601, 1601, 1609, 1616, 1632, 1632, 1647, 1647, 1655, 1663, 1663, 1680, 1688, 1705, 1722, 1722, 1731, 1731, 1739, 1739, 1748, 1776, 1794, 1804, 1804, 1813, 1813, 1823, 1833, 1843, 1853, 1863, 1873, 1883, 1894, 1904, 1915, 1915, 1926, 1936, 1936, 1947, 1970, 1981, 2005, 2016, 2028, 2040, 2053, 2053, 2065, 2065, 2078, 2090, 2103, 2116, 2129, 2156, 2170, 2170, 2198, 2198, 2212, 2226, 2241, 2256, 2271, 2301, 2317, 2333, 2349, 2349, 2365, 2365, 2381, 2398, 2432, 2450, 2467, 2485, 2485, 2503, 2503, 2522, 2560, 2579, 2618, 2639, 2639, 2659, 2680, 2701, 2744, 2744, 2744, 2767, 2767, 2789, 2812, 2835, 2859, 2908, 2908, 2933, 2933, 2958, 2958, 3010, 3037, 3064, 3120, 3120, 3149, 3208, 3208, 3238, 3269, 3269, 3300, 3365, 3365, 3399, 3399, 3433, 3433, 3468, 3539, 3614, 3653, 3692, 3692, 3732, 3732, 3774, 3774, 3816, 3859, 3859, 3903, 3903, 3903, 3994, 3948, 3994, 3994, 3994, 4041, 4041, 4041, 3994, 3994, 3994, 3994, 4041, 4041, 4041, 4041, 0, 0, 0, 0, 0, 0, 0, 5640, 5832, 5832, 5832, 5933, 5832, 5832, 5832, 5832, 5832, 5734, 5734, 5640, 5734, 5734, 5734, 5734, 5734, 5832, 5832, 5832, 5832, 5832, 5734, 5734, 5734, 5734, 5640, 5640, 5640, 5640, 5832, 0, 0, 0, 0, 0, 0, 0, 0
0, 0, 0, 0, 532, 532, 532, 534, 534, 534, 535, 535, 535, 536, 538, 540, 542, 542, 543, 543, 543, 543, 0, 0, 0, 0, 0, 0, 0, 0, 0, 0, 0, 0, 0, 557, 560, 563, 564, 564, 564, 565, 565, 566, 567, 570, 571, 572, 572, 572, 572, 573, 575, 576, 577, 580, 581, 582, 582, 583, 584, 585, 586, 587, 587, 588, 588, 590, 591, 592, 593, 594, 594, 595, 595, 596, 599, 600, 603, 604, 604, 606, 607, 607, 608, 609, 610, 612, 613, 613, 614, 614, 615, 616, 618, 619, 622, 623, 623, 624, 624, 627, 628, 628, 629, 630, 630, 631, 631, 632, 638, 640, 640, 641, 641, 642, 643, 644, 646, 647, 648, 649, 650, 650, 652, 654, 655, 657, 658, 658, 658, 658, 659, 0, 0, 0, 0, 0, 675, 675, 675, 675, 675, 676, 676, 0, 0, 0, 0, 0, 0, 0, 0, 0, 0, 0, 0, 0, 0, 0, 0, 0, 0, 0, 0, 0, 0, 0, 0, 0, 0, 0, 0, 0, 0, 0, 0, 0, 0, 0, 0, 0, 0, 0, 0, 0, 0, 0, 0, 0, 0, 0, 0, 0, 0, 0, 0, 0, 0, 0, 0, 0, 0, 0, 0, 0, 0, 0, 0, 0, 0, 0, 0, 0, 0, 0, 0, 0, 0, 0, 0, 0, 0, 0, 0, 0, 0, 0, 0, 0, 0, 0, 0, 0, 0, 0, 0, 0, 0, 0, 0, 0, 0, 0, 0, 0, 0, 0, 0, 0, 0, 0, 0, 0, 0, 0, 0, 0, 0, 0, 0, 0, 0, 0, 0, 0, 0, 0, 0, 0, 0, 0, 0, 0, 0, 0, 0, 0, 0, 0, 0, 0, 0, 0, 0, 0, 0, 0, 0, 0, 0, 0, 0, 0, 0, 0, 0, 0, 0, 0, 0, 0, 0, 0, 0, 0, 0, 0, 0, 0, 0, 0, 0, 0, 0, 0, 0, 0, 0, 0, 0, 0, 0, 0, 0, 0, 0, 0, 0, 0, 1094, 1094, 1097, 1097, 1101, 1101, 1105, 1105, 1108, 1112, 1115, 1123, 1123, 1126, 1126, 1134, 1138, 1141, 1145, 1145, 1149, 1149, 1149, 1145, 1145, 1149, 1149, 1193, 1197, 1197, 1197, 1197, 1197, 1202, 1206, 1210, 1214, 1219, 1223, 1227, 1232, 1232, 1241, 1245, 1250, 1255, 1264, 1264, 1268, 1268, 1278, 1278, 1283, 1288, 1297, 1302, 1307, 1312, 1312, 1317, 1322, 1333, 1343, 1349, 1354, 1354, 1354, 1359, 1365, 1370, 1381, 1392, 1398, 1398, 1404, 1410, 1415, 1421, 1427, 1433, 1439, 1439, 1445, 1445, 1452, 1458, 1470, 1477, 1489, 1496, 1503, 1503, 1509, 1509, 1516, 1523, 1523, 1543, 1550, 1564, 1572, 1579, 1579, 1586, 1594, 1601, 1601, 1609, 1616, 1624, 1632, 1632, 1639, 1647, 1655, 1663, 1671, 1680, 1696, 1705, 1722, 1731, 1731, 1739, 1739, 1748, 1748, 1776, 1794, 1794, 1804, 1813, 1813, 1823, 1833, 1843, 1853, 1853, 1863, 1883, 1894, 1915, 1915, 1926, 1926, 1936, 1947, 1959, 1970, 1981, 1993, 2016, 2028, 2040, 2053, 2065, 2065, 2078, 2078, 2090, 2103, 2116, 2129, 2156, 2170, 2170, 2198, 2212, 2212, 2226, 2241, 2271, 2286, 2301, 2317, 2333, 2349, 2349, 2365, 2365, 2381, 2398, 2432, 2432, 2467, 2485, 2485, 2503, 2522, 2541, 2560, 2579, 2598, 2618, 2639, 2659, 2680, 2701, 2723, 2744, 2767, 2767, 2767, 2789, 2812, 2835, 2859, 2883, 2908, 2933, 2933, 2958, 2958, 3010, 3037, 3064, 3120, 3149, 3149, 3178, 3238, 3238, 3269, 3269, 3300, 3333, 3365, 3365, 3399, 3433, 3433, 3468, 3539, 3614, 3692, 3692, 3692, 3732, 3732, 3774, 3774, 3816, 3859, 3859, 3903, 3903, 3903, 3994, 0, 0, 0, 0, 0, 4041, 4041, 3994, 3994, 3994, 3994, 4041, 4041, 4041, 0, 0, 0, 0, 0, 0, 0, 0, 0, 5832, 5832, 5832, 5832, 5734, 5734, 5640, 5734, 5734, 5640, 5734, 5640, 5734, 5640, 5734, 5734, 5734, 5734, 5832, 5832, 5832, 5832, 5832, 5832, 5734, 5734, 5734, 5640, 5640, 5734, 5832, 0, 0, 0, 0, 0, 0, 0, 0
0, 0, 0, 0, 530, 530, 531, 0, 533, 0, 535, 535, 535, 535, 536, 536, 542, 542, 543, 543, 542, 542, 0, 0, 0, 0, 549, 0, 0, 553, 0, 0, 0, 0, 0, 0, 0, 565, 565, 564, 564, 565, 566, 566, 567, 569, 570, 572, 572, 572, 573, 574, 575, 576, 577, 580, 580, 581, 582, 583, 584, 585, 586, 587, 587, 588, 588, 590, 591, 592, 593, 594, 594, 595, 595, 596, 599, 600, 603, 604, 604, 606, 606, 607, 608, 609, 610, 611, 612, 613, 614, 614, 615, 616, 618, 619, 622, 621, 622, 623, 624, 627, 627, 628, 629, 630, 630, 631, 632, 634, 637, 640, 640, 641, 641, 642, 643, 644, 646, 647, 648, 649, 649, 650, 652, 653, 655, 657, 658, 658, 658, 659, 659, 659, 661, 0, 0, 0, 675, 675, 675, 675, 675, 676, 676, 678, 680, 0, 0, 0, 0, 0, 0, 0, 0, 0, 0, 0, 0, 0, 0, 0, 0, 0, 0, 0, 0, 0, 0, 0, 0, 0, 0, 0, 0, 0, 0, 0, 0, 0, 0, 0, 0, 0, 0, 0, 0, 0, 0, 0, 0, 0, 0, 0, 0, 0, 0, 0, 0, 0, 0, 0, 0, 0, 0, 0, 0, 0, 0, 0, 0, 0, 0, 0, 0, 0, 0, 0, 0, 0, 0, 0, 0, 0, 0, 0, 0, 0, 0, 0, 0, 0, 0, 0, 0, 0, 0, 0, 0, 0, 0, 0, 0, 0, 0, 0, 0, 0, 0, 0, 0, 0, 0, 0, 0, 0, 0, 0, 0, 0, 0, 0, 0, 0, 0, 0, 0, 0, 0, 0, 0, 0, 0, 0, 0, 0, 0, 0, 0, 0, 0, 0, 0, 0, 0, 0, 0, 0, 0, 0, 0, 0, 0, 0, 0, 0, 0, 0, 0, 0, 0, 0, 0, 0, 0, 0, 0, 0, 0, 0, 0, 0, 0, 0, 0, 0, 0, 0, 0, 0, 0, 0, 0, 0, 0, 0, 0, 0, 0, 0, 1090, 1090, 1094, 1097, 1101, 1101, 1105, 1108, 1112, 1115, 1119, 1119, 1123, 1123, 1126, 1130, 1138, 1145, 1145, 1145, 1149, 1149, 1149, 1149, 1149, 1149, 1189, 1189, 1193, 1197, 1197, 1197, 1197, 1202, 1206, 1206, 1214, 1219, 1227, 1227, 1232, 1236, 1241, 1245, 1250, 1259, 1264, 1268, 1268, 1268, 1273, 1278, 1283, 1288, 1297, 1302, 1307, 1307, 1312, 1317, 1322, 1328, 1343, 1349, 1354, 1354, 1354, 1359, 1365, 1370, 1381, 1392, 1398, 1404, 1410, 1415, 1415, 1421, 1427, 1433, 1433, 1439, 1445, 1445, 1452, 1458, 1470, 1483, 1489, 1496, 1496, 1503, 1509, 1516, 1516, 1523, 1529, 1543, 1550, 1564, 1572, 1572, 1579, 1579, 1586, 1601, 1601, 1609, 1616, 1624, 1632, 1639, 1647, 1647, 1655, 1663, 1671, 1680, 1696, 1713, 1722, 1731, 1731, 1739, 1739, 1748, 1757, 1776, 1794, 1794, 1804, 1813, 1823, 1823, 1833, 1843, 1843, 1853, 1863, 1883, 1904, 1915, 1915, 1926, 1936, 1947, 1959, 1970, 1970, 1981, 1993, 2005, 2016, 2040, 2053, 2065, 2065, 2065, 2078, 2090, 2103, 2116, 2143, 2156, 2170, 2184, 2198, 2212, 2212, 2241, 2256, 2271, 2286, 2301, 2317, 2333, 2349, 2349, 2365, 2365, 2381, 2398, 2432, 2450, 2467, 2467, 2485, 2503, 2503, 2522, 2560, 2579, 2598, 2618, 2639, 2659, 2680, 2701, 2723, 2744, 2744, 2767, 2767, 2789, 2812, 2835, 2859, 2908, 2908, 2933, 2933, 2984, 2984, 3010, 3037, 3092, 3120, 3120, 3149, 3208, 3238, 3269, 3269, 3269, 3300, 3333, 3365, 3365, 3399, 3399, 3433, 3503, 3576, 3614, 3653, 3692, 3692, 3732, 3732, 3774, 3816, 3816, 3859, 3903, 3903, 3903, 3859, 0, 0, 0, 0, 0, 4089, 0, 4089, 3994, 3994, 3994, 4041, 4041, 4041, 0, 0, 0, 0, 0, 0, 0, 0, 0, 0, 5933, 5933, 5933, 5832, 5734, 5734, 5734, 5734, 5734, 5640, 5734, 5640, 5640, 5640, 5734, 5734, 5734, 5832, 5832, 5832, 5832, 5832, 5832, 5832, 5734, 5734, 5640, 5640, 5640, 5734, 5832, 0, 0, 0, 0, 0, 0, 0, 0
0, 0, 529, 530, 530, 530, 0, 0, 0, 0, 535, 536, 536, 536, 538, 0, 542, 542, 546, 545, 545, 0, 0, 0, 0, 549, 549, 550, 551, 552, 552, 553, 0, 0, 0, 0, 0, 564, 565, 564, 564, 565, 566, 566, 567, 569, 570, 571, 572, 572, 573, 574, 575, 576, 577, 579, 580, 581, 582, 583, 584, 586, 587, 587, 588, 588, 588, 590, 591, 592, 593, 594, 594, 595, 595, 597, 599, 599, 603, 604, 604, 606, 606, 607, 607, 608, 609, 611, 613, 613, 614, 614, 615, 616, 618, 618, 621, 621, 622, 623, 624, 627, 627, 629, 629, 630, 631, 632, 632, 635, 637, 638, 638, 641, 641, 642, 643, 644, 646, 647, 648, 649, 649, 650, 652, 653, 655, 657, 658, 658, 659, 659, 659, 661, 662, 666, 0, 674, 674, 675, 675, 675, 676, 678, 676, 678, 680, 684, 684, 686, 686, 687, 687, 0, 0, 0, 0, 0, 0, 0, 0, 0, 0, 0, 0, 0, 0, 0, 0, 0, 0, 0, 0, 0, 0, 0, 0, 0, 0, 0, 0, 0, 0, 0, 0, 0, 0, 0, 0, 0, 0, 0, 0, 0, 0, 0, 0, 0, 0, 0, 0, 0, 0, 0, 0, 0, 0, 0, 0, 0, 0, 0, 0, 0, 0, 0, 0, 0, 0, 0, 0, 0, 0, 0, 0, 0, 0, 0, 0, 0, 0, 0, 0, 0, 0, 0, 0, 0, 0, 0, 0, 0, 0, 0, 0, 0, 0, 0, 0, 0, 0, 0, 0, 0, 0, 0, 0, 0, 0, 0, 0, 0, 0, 0, 0, 0, 0, 0, 0, 0, 0, 0, 0, 0, 0, 0, 0, 0, 0, 0, 0, 0, 0, 0, 0, 0, 0, 0, 0, 0, 0, 0, 0, 0, 0, 0, 0, 0, 0, 0, 0, 0, 0, 0, 0, 0, 0, 0, 0, 0, 0, 0, 0, 0, 0, 0, 0, 0, 0, 0, 0, 0, 0, 0, 0, 0, 0, 0, 0, 1084, 1084, 1087, 1090, 1094, 1101, 1105, 1105, 1108, 1112, 1115, 1119, 1123, 1123, 1126, 1126, 1134, 1138, 1145, 1145, 1145, 1149, 1149, 1149, 1145, 1145, 1169, 1181, 1185, 1193, 1193, 1197, 1197, 1202, 1206, 1206, 1206, 1214, 1219, 1227, 1232, 1232, 1236, 1241, 1245, 1250, 1255, 1259, 1268, 1268, 1273, 1278, 1283, 1288, 1292, 1297, 1302, 1307, 1307, 1312, 1317, 1322, 1328, 1338, 1343, 1354, 1354, 1359, 1359, 1370, 1376, 1381, 1392, 1398, 1404, 1404, 1415, 1421, 1421, 1427, 1433, 1439, 1439, 1445, 1445, 1452, 1458, 1470, 1477, 1489, 1496, 1503, 1509, 1509, 1516, 1523, 1523, 1529, 1543, 1550, 1557, 1572, 1572, 1579, 1579, 1586, 1601, 1601, 1609, 1624, 1632, 1632, 1639, 1647, 1647, 1655, 1663, 1671, 1688, 1696, 1713, 1722, 1722, 1731, 1739, 1739, 1748, 1757, 1776, 1785, 1794, 1804, 1813, 1813, 1823, 1833, 1843, 1843, 1853, 1863, 1883, 1894, 1915, 1915, 1926, 1936, 1947, 1959, 1970, 1970, 1981, 1993, 2005, 2016, 2040, 2053, 2065, 2065, 2078, 2078, 2090, 2103, 2129, 2143, 2156, 2170, 2184, 2198, 2226, 2226, 2241, 2256, 2271, 2286, 2301, 2317, 2333, 2333, 2349, 2365, 2365, 2381, 2398, 2432, 2450, 2467, 2467, 2485, 2503, 2503, 2522, 2560, 2579, 2598, 2618, 2639, 2659, 2680, 2701, 2723, 2744, 2744, 2767, 2767, 2789, 2812, 2835, 2859, 2883, 2908, 2933, 2958, 2984, 2984, 3010, 3037, 3092, 3120, 3149, 3149, 3208, 3238, 3269, 3269, 3300, 3333, 3365, 3365, 3365, 3399, 3433, 3468, 3503, 3539, 3614, 3692, 3692, 3692, 3732, 3732, 3774, 3816, 3816, 3816, 3859, 3903, 3903, 3903, 3903, 0, 0, 0, 0, 4190, 4089, 4089, 3994, 4041, 3994, 3994, 4041, 4041, 0, 0, 0, 0, 0, 0, 0, 0, 0, 0, 5933, 5933, 5832, 5734, 5734, 5734, 5640, 5734, 5734, 5640, 5734, 5640, 5734, 5640, 5734, 5734, 5734, 5832, 5832, 5832, 5832, 5832, 5832, 5832, 5734, 5734, 5734, 5640, 5640, 5734, 5832, 0, 0, 0, 0, 0, 0, 0, 0
0, 0, 0, 0, 0, 0, 0, 0, 0, 0, 0, 0, 0, 0, 536, 0, 0, 0, 546, 546, 546, 0, 0, 0, 0, 548, 549, 549, 549, 552, 552, 553, 0, 0, 0, 0, 0, 0, 565, 565, 565, 565, 567, 567, 568, 570, 570, 571, 571, 572, 573, 574, 575, 576, 577, 579, 580, 581, 582, 583, 585, 586, 587, 588, 588, 588, 589, 590, 591, 592, 593, 594, 595, 595, 596, 596, 598, 599, 603, 604, 604, 606, 606, 606, 607, 608, 609, 612, 613, 614, 614, 615, 615, 616, 618, 618, 620, 621, 622, 622, 624, 627, 627, 629, 630, 630, 631, 631, 632, 634, 637, 638, 638, 641, 642, 642, 644, 644, 646, 647, 647, 648, 649, 650, 652, 653, 655, 657, 658, 658, 659, 659, 661, 662, 662, 667, 668, 672, 674, 675, 675, 676, 676, 678, 678, 678, 682, 686, 686, 687, 688, 688, 688, 690, 690, 691, 0, 0, 0, 0, 701, 703, 704, 706, 0, 0, 0, 0, 0, 0, 0, 0, 0, 0, 0, 0, 0, 0, 0, 0, 0, 0, 0, 0, 0, 0, 0, 0, 0, 0, 0, 0, 0, 0, 0, 0, 0, 0, 0, 0, 0, 0, 0, 0, 0, 0, 0, 0, 0, 0, 0, 0, 0, 0, 0, 0, 0, 0, 0, 0, 0, 0, 0, 0, 0, 0, 0, 0, 0, 0, 0, 0, 0, 0, 0, 0, 0, 0, 0, 0, 0, 0, 0, 0, 0, 0, 0, 0, 0, 0, 0, 0, 0, 0, 0, 0, 0, 0, 0, 0, 0, 0, 0, 0, 0, 0, 0, 0, 0, 0, 0, 0, 0, 0, 0, 0, 0, 0, 0, 0, 0, 0, 0, 0, 0, 0, 0, 0, 0, 0, 0, 0, 0, 0, 0, 0, 0, 0, 0, 0, 0, 0, 0, 0, 0, 0, 0, 0, 0, 0, 0, 0, 0, 0, 0, 0, 0, 0, 0, 0, 0, 0, 0, 0, 0, 0, 0, 0, 0, 1084, 1084, 1087, 1090, 1094, 1094, 1101, 1105, 1108, 1112, 1115, 1119, 1119, 1123, 1126, 1126, 1134, 1141, 1145, 1145, 1145, 1149, 1149, 1149, 1145, 1141, 1141, 1185, 1185, 1193, 1193, 1197, 1197, 1197, 1202, 1206, 1206, 1214, 1219, 1227, 1232, 1232, 1236, 1241, 1241, 1250, 1255, 1259, 1268, 1273, 1273, 1283, 1283, 1288, 1292, 1297, 1302, 1307, 1307, 1312, 1317, 1317, 1328, 1338, 1343, 1354, 1354, 1359, 1359, 1370, 1376, 1381, 1392, 1398, 1404, 1410, 1415, 1415, 1421, 1427, 1433, 1439, 1445, 1445, 1452, 1452, 1458, 1470, 1477, 1483, 1496, 1503, 1509, 1509, 1516, 1523, 1529, 1529, 1543, 1550, 1564, 1572, 1579, 1579, 1579, 1586, 1601, 1601, 1616, 1624, 1632, 1632, 1639, 1639, 1647, 1647, 1663, 1671, 1688, 1705, 1713, 1713, 1722, 1731, 1739, 1739, 1748, 1757, 1776, 1776, 1785, 1804, 1813, 1823, 1833, 1833, 1843, 1843, 1853, 1863, 1883, 1894, 1904, 1915, 1926, 1936, 1947, 1959, 1970, 1981, 1981, 1993, 2005, 2016, 2028, 2053, 2065, 2065, 2078, 2090, 2103, 2116, 2129, 2143, 2156, 2170, 2184, 2198, 2226, 2241, 2256, 2271, 2286, 2286, 2301, 2301, 2333, 2333, 2349, 2365, 2381, 2381, 2398, 2432, 2450, 2467, 2467, 2485, 2485, 2503, 2522, 2560, 2579, 2598, 2618, 2639, 2659, 2659, 2701, 2723, 2744, 2744, 2767, 2789, 2812, 2835, 2835, 2883, 2908, 2908, 2933, 2933, 2984, 2984, 3037, 3064, 3092, 3120, 3149, 3149, 3149, 3238, 3238, 3269, 3300, 3300, 3333, 3365, 3365, 3399, 3399, 3468, 3539, 3576, 3614, 3653, 3692, 3692, 3732, 3774, 3774, 3816, 3816, 3816, 3903, 3903, 3903, 3903, 0, 0, 0, 0, 0, 4190, 4190, 4139, 4041, 4041, 4041, 4041, 4089, 4089, 0, 0, 0, 0, 0, 0, 0, 0, 0, 0, 5933, 5933, 5933, 5832, 5832, 5832, 5734, 5734, 5734, 5640, 5734, 5640, 5734, 5640, 5640, 5640, 5734, 5832, 5832, 5832, 5832, 5832, 5832, 5832, 5734, 5734, 5734, 5640, 5640, 5734, 5734, 0, 0, 0, 0, 0, 0, 0, 0
528, 528, 529, 0, 0, 0, 0, 0, 0, 0, 0, 0, 0, 0, 0, 0, 0, 0, 0, 0, 0, 0, 0, 0, 0, 548, 549, 549, 550, 552, 552, 552, 553, 0, 0, 0, 0, 0, 565, 564, 565, 565, 567, 567, 568, 570, 570, 571, 572, 572, 573, 574, 575, 576, 578, 579, 579, 580, 582, 583, 585, 586, 587, 588, 588, 588, 589, 590, 591, 592, 593, 594, 595, 595, 595, 596, 598, 599, 602, 604, 604, 604, 606, 606, 607, 608, 609, 612, 613, 614, 614, 615, 615, 616, 618, 619, 621, 621, 622, 622, 624, 627, 627, 629, 630, 630, 631, 632, 632, 634, 637, 637, 638, 640, 641, 643, 644, 644, 646, 647, 648, 648, 649, 650, 650, 653, 655, 658, 658, 659, 659, 661, 661, 662, 664, 668, 670, 671, 674, 674, 675, 675, 676, 678, 678, 676, 683, 686, 687, 687, 688, 688, 690, 690, 690, 691, 693, 694, 0, 0, 703, 703, 704, 704, 706, 708, 0, 0, 0, 0, 0, 0, 0, 0, 0, 0, 0, 0, 0, 0, 0, 0, 0, 0, 0, 0, 0, 0, 0, 0, 0, 0, 0, 0, 0, 0, 0, 0, 0, 0, 0, 0, 0, 0, 0, 0, 0, 0, 0, 0, 0, 0, 0, 0, 0, 0, 0, 0, 0, 0, 0, 0, 0, 0, 0, 0, 0, 0, 0, 0, 0, 0, 0, 0, 0, 0, 0, 0, 0, 0, 0, 0, 0, 0, 0, 0, 0, 0, 0, 0, 0, 0, 0, 0, 0, 0, 0, 0, 0, 0, 0, 0, 0, 0, 0, 0, 0, 0, 0, 0, 0, 0, 0, 0, 0, 0, 0, 0, 0, 0, 0, 0, 0, 0, 0, 0, 0, 0, 0, 0, 0, 0, 0, 0, 0, 0, 0, 0, 0, 0, 0, 0, 0, 0, 0, 0, 0, 0, 0, 0, 0, 0, 0, 0, 0, 0, 0, 0, 0, 0, 0, 0, 0, 0, 1067, 1067, 1070, 1077, 1080, 1084, 1084, 1087, 1090, 1094, 1094, 1097, 1101, 1108, 1112, 1115, 1119, 1123, 1123, 1126, 1126, 1134, 1141, 1145, 1145, 1145, 1149, 1149, 1149, 1149, 1149, 1177, 1181, 1185, 1189, 1193, 1193, 1197, 1197, 1202, 1202, 1206, 1210, 1219, 1227, 1232, 1232, 1236, 1241, 1241, 1250, 1255, 1264, 1268, 1273, 1273, 1283, 1283, 1288, 1292, 1297, 1302, 1307, 1307, 1312, 1317, 1317, 1328, 1338, 1349, 1354, 1354, 1354, 1359, 1365, 1376, 1381, 1392, 1398, 1404, 1410, 1415, 1421, 1427, 1427, 1433, 1439, 1445, 1445, 1452, 1452, 1458, 1470, 1477, 1483, 1496, 1496, 1503, 1509, 1516, 1523, 1529, 1536, 1543, 1550, 1564, 1572, 1572, 1579, 1579, 1586, 1601, 1601, 1616, 1624, 1632, 1632, 1639, 1639, 1647, 1655, 1663, 1671, 1688, 1705, 1713, 1713, 1722, 1731, 1739, 1739, 1748, 1757, 1776, 1785, 1785, 1804, 1813, 1823, 1833, 1833, 1843, 1853, 1853, 1873, 1883, 1894, 1904, 1915, 1926, 1936, 1947, 1959, 1970, 1981, 1981, 2005, 2005, 2016, 2028, 2053, 2065, 2078, 2090, 2090, 2103, 2116, 2129, 2143, 2156, 2170, 2184, 2198, 2226, 2241, 2256, 2271, 2286, 2286, 2301, 2301, 2333, 2333, 2349, 2365, 2381, 2398, 2415, 2432, 2450, 2467, 2467, 2485, 2503, 2503, 2541, 2560, 2579, 2598, 2618, 2639, 2659, 2659, 2680, 2701, 2723, 2744, 2767, 2767, 2789, 2812, 2835, 2883, 2908, 2908, 2933, 2933, 2958, 3010, 3037, 3064, 3120, 3120, 3149, 3149, 3178, 3208, 3238, 3269, 3300, 3333, 3365, 3365, 3365, 3399, 3433, 3468, 3539, 3576, 3653, 3653, 3692, 3692, 3732, 3774, 3774, 3774, 3816, 3816, 3816, 3903, 3903, 0, 0, 0, 0, 0, 0, 0, 4139, 4139, 4041, 4041, 4041, 4089, 4089, 4041, 0, 0, 0, 0, 0, 0, 0, 0, 0, 0, 0, 6038, 5933, 5832, 5832, 5832, 5734, 5734, 5734, 5640, 5640, 5640, 5734, 5640, 5640, 5640, 5640, 5734, 5734, 5734, 5832, 5832, 5832, 5832, 5734, 5734, 5640, 5640, 5640, 5640, 5734, 0, 0, 0, 0, 0, 0, 0, 0
528, 529, 529, 529, 530, 0, 0, 0, 0, 0, 0, 0, 0, 0, 0, 0, 0, 0, 0, 0, 0, 0, 0, 547, 548, 549, 549, 550, 552, 553, 553, 553, 553, 0, 554, 0, 0, 0, 565, 565, 565, 565, 567, 567, 568, 570, 570, 571, 571, 572, 573, 574, 575, 576, 579, 579, 579, 581, 582, 583, 585, 586, 587, 588, 588, 589, 589, 590, 591, 592, 593, 593, 595, 595, 596, 597, 600, 601, 603, 604, 604, 604, 606, 606, 606, 608, 609, 612, 613, 613, 614, 615, 616, 618, 619, 620, 621, 622, 622, 622, 624, 627, 628, 630, 630, 631, 632, 632, 634, 634, 636, 636, 637, 640, 641, 642, 644, 646, 646, 647, 647, 648, 649, 650, 652, 654, 657, 658, 658, 659, 659, 661, 661, 663, 666, 667, 668, 671, 672, 672, 675, 675, 676, 678, 678, 678, 682, 686, 686, 687, 688, 690, 691, 691, 691, 691, 694, 696, 698, 700, 703, 703, 704, 704, 706, 708, 708, 708, 0, 0, 0, 0, 0, 0, 0, 0, 0, 0, 0, 0, 0, 0, 0, 0, 0, 0, 0, 0, 0, 0, 0, 0, 0, 0, 0, 0, 0, 0, 0, 0, 0, 0, 0, 0, 0, 0, 0, 0, 0, 0, 0, 0, 0, 0, 0, 0, 0, 0, 0, 0, 0, 0, 0, 0, 0, 0, 0, 0, 0, 0, 0, 0, 0, 0, 0, 0, 0, 0, 0, 0, 0, 0, 0, 0, 0, 0, 0, 0, 0, 0, 0, 0, 0, 0, 0, 0, 0, 0, 0, 0, 0, 0, 0, 0, 0, 0, 0, 0, 0, 0, 0, 0, 0, 0, 0, 0, 0, 0, 0, 0, 0, 0, 0, 0, 0, 0, 0, 0, 0, 0, 0, 0, 0, 0, 0, 0, 0, 0, 0, 0, 0, 0, 0, 0, 0, 0, 0, 0, 0, 0, 0, 0, 0, 0, 0, 0, 0, 0, 0, 0, 0, 0, 1063, 1063, 1067, 1067, 1070, 1073, 1080, 1080, 1084, 1087, 1090, 1090, 1094, 1097, 1101, 1108, 1112, 1115, 1119, 1123, 1126, 1130, 1130, 1138, 1141, 1145, 1149, 1145, 1149, 1149, 1149, 1149, 1153, 1173, 1181, 1181, 1189, 1193, 1193, 1197, 1197, 1202, 1206, 1206, 1214, 1219, 1227, 1232, 1232, 1236, 1236, 1245, 1250, 1255, 1264, 1268, 1268, 1273, 1278, 1283, 1283, 1288, 1292, 1297, 1307, 1312, 1312, 1317, 1322, 1328, 1338, 1343, 1349, 1354, 1354, 1359, 1365, 1370, 1381, 1392, 1398, 1404, 1410, 1415, 1421, 1427, 1433, 1433, 1439, 1445, 1452, 1452, 1458, 1464, 1470, 1477, 1489, 1496, 1496, 1503, 1509, 1516, 1523, 1529, 1536, 1543, 1550, 1564, 1572, 1572, 1579, 1586, 1594, 1601, 1609, 1616, 1624, 1632, 1639, 1639, 1639, 1647, 1655, 1663, 1680, 1688, 1696, 1705, 1713, 1722, 1731, 1739, 1748, 1757, 1766, 1776, 1785, 1785, 1804, 1813, 1823, 1833, 1833, 1843, 1843, 1853, 1873, 1883, 1904, 1915, 1915, 1926, 1936, 1947, 1959, 1970, 1981, 1981, 1993, 2005, 2016, 2040, 2053, 2065, 2078, 2090, 2090, 2103, 2116, 2129, 2143, 2156, 2170, 2184, 2212, 2241, 2241, 2256, 2271, 2286, 2286, 2286, 2301, 2317, 2333, 2365, 2381, 2398, 2415, 2415, 2432, 2450, 2450, 2467, 2485, 2485, 2503, 2541, 2560, 2579, 2598, 2618, 2639, 2659, 2680, 2701, 2723, 2744, 2744, 2767, 2789, 2812, 2835, 2835, 2859, 2883, 2908, 2908, 2933, 2958, 2984, 3037, 3092, 3120, 3120, 3149, 3149, 3178, 3208, 3238, 3269, 3333, 3333, 3365, 3365, 3365, 3399, 3433, 3468, 3503, 3576, 3653, 3653, 3692, 3692, 3732, 3774, 3774, 3774, 3816, 3816, 3816, 3859, 3948, 3948, 4089, 4139, 0, 0, 0, 3994, 4089, 4139, 4041, 4041, 4089, 4089, 4089, 4089, 0, 0, 0, 0, 0, 0, 0, 0, 0, 0, 0, 0, 5832, 5832, 5734, 5734, 5734, 5734, 5734, 5640, 5640, 5640, 5640, 5640, 5640, 5640, 5640, 5640, 5640, 5734, 5734, 5933, 5933, 5933, 5734, 5734, 5734, 5640, 5640, 5734, 5734, 0, 0, 0, 0, 0, 0, 0, 0
529, 529, 529, 530, 531, 531, 0, 0, 0, 0, 0, 0, 0, 0, 0, 0, 0, 0, 0, 0, 0, 0, 0, 548, 548, 549, 550, 550, 552, 552, 552, 553, 554, 554, 554, 553, 0, 0, 565, 565, 565, 565, 567, 568, 568, 569, 570, 571, 572, 572, 573, 575, 576, 577, 579, 578, 579, 580, 582, 583, 585, 586, 586, 587, 588, 588, 589, 590, 592, 592, 593, 594, 595, 595, 596, 596, 598, 599, 603, 603, 604, 604, 606, 606, 606, 608, 609, 610, 611, 612, 613, 614, 615, 618, 619, 620, 621, 621, 622, 622, 624, 628, 629, 630, 630, 631, 631, 632, 634, 634, 636, 636, 637, 638, 640, 643, 644, 646, 646, 647, 647, 648, 649, 650, 653, 654, 657, 658, 658, 659, 659, 661, 661, 664, 666, 667, 667, 668, 671, 672, 675, 675, 676, 678, 678, 678, 683, 686, 687, 687, 688, 688, 691, 691, 691, 691, 694, 696, 698, 700, 703, 703, 704, 706, 706, 708, 710, 711, 711, 713, 714, 0, 0, 0, 0, 0, 0, 0, 0, 0, 0, 0, 0, 0, 0, 0, 0, 0, 0, 0, 0, 0, 0, 0, 0, 0, 0, 0, 0, 0, 0, 0, 0, 0, 0, 0, 0, 0, 0, 0, 0, 0, 0, 0, 0, 0, 0, 0, 0, 0, 0, 0, 0, 0, 0, 0, 0, 0, 0, 0, 0, 0, 0, 0, 0, 0, 0, 0, 0, 0, 0, 0, 0, 0, 0, 0, 0, 0, 0, 0, 0, 0, 0, 0, 0, 0, 0, 0, 0, 0, 0, 0, 0, 0, 0, 0, 0, 0, 0, 0, 0, 0, 0, 0, 0, 0, 0, 0, 0, 0, 0, 0, 0, 0, 0, 0, 0, 0, 0, 0, 0, 0, 0, 0, 0, 0, 0, 0, 0, 0, 0, 0, 0, 0, 0, 1004, 0, 0, 0, 0, 0, 0, 0, 0, 0, 0, 0, 0, 0, 0, 1060, 1060, 1060, 1063, 1067, 1067, 1070, 1073, 1080, 1080, 1084, 1087, 1090, 1090, 1094, 1094, 1101, 1105, 1112, 1115, 1123, 1126, 1130, 1130, 1134, 1138, 1141, 1149, 1149, 1145, 1149, 1149, 1149, 1149, 1153, 1177, 1181, 1181, 1189, 1193, 1193, 1197, 1202, 1202, 1206, 1206, 1214, 1219, 1227, 1227, 1232, 1236, 1236, 1241, 1250, 1255, 1259, 1264, 1268, 1273, 1278, 1278, 1283, 1288, 1292, 1297, 1307, 1312, 1312, 1317, 1322, 1328, 1338, 1343, 1354, 1354, 1354, 1359, 1365, 1370, 1376, 1387, 1398, 1404, 1410, 1415, 1421, 1427, 1427, 1433, 1439, 1445, 1452, 1452, 1464, 1464, 1470, 1477, 1483, 1489, 1496, 1509, 1516, 1516, 1523, 1529, 1536, 1543, 1550, 1564, 1572, 1572, 1579, 1586, 1594, 1601, 1609, 1624, 1632, 1632, 1639, 1639, 1647, 1647, 1663, 1663, 1680, 1688, 1696, 1705, 1713, 1722, 1731, 1739, 1748, 1757, 1766, 1776, 1785, 1785, 1794, 1813, 1823, 1833, 1833, 1843, 1853, 1853, 1873, 1883, 1904, 1915, 1915, 1926, 1936, 1947, 1959, 1970, 1981, 1981, 1993, 2005, 2016, 2040, 2053, 2065, 2078, 2090, 2103, 2103, 2116, 2129, 2143, 2156, 2170, 2184, 2198, 2241, 2256, 2271, 2271, 2286, 2286, 2301, 2301, 2317, 2333, 2365, 2381, 2398, 2415, 2415, 2432, 2450, 2467, 2467, 2485, 2503, 2503, 2541, 2560, 2579, 2598, 2618, 2639, 2659, 2680, 2701, 2723, 2723, 2744, 2744, 2767, 2789, 2812, 2835, 2859, 2883, 2908, 2908, 2933, 2958, 3010, 3064, 3092, 3120, 3120, 3120, 3149, 3149, 3178, 3238, 3300, 3333, 3365, 3365, 3399, 3399, 3433, 3433, 3468, 3539, 3576, 3614, 3653, 3692, 3692, 3732, 3774, 3774, 3816, 3816, 3816, 3859, 3859, 3994, 3994, 4041, 4089, 4089, 4041, 3994, 3994, 3994, 3994, 4041, 4041, 4041, 4089, 4089, 4089, 4190, 0, 0, 0, 0, 0, 0, 0, 0, 0, 0, 0, 0, 5734, 5734, 5734, 5734, 5734, 5734, 5640, 5640, 5640, 5640, 5640, 5640, 5640, 5640, 5640, 5640, 5734, 5640, 5734, 5832, 5832, 5734, 5640, 5640, 5640, 5640, 5734, 5734, 0, 0, 0, 0, 0, 0, 0, 0
529, 529, 530, 530, 531, 531, 0, 0, 0, 0, 0, 0, 0, 0, 0, 0, 0, 0, 0, 0, 547, 0, 547, 547, 548, 549, 549, 550, 551, 552, 552, 553, 554, 554, 554, 554, 0, 0, 565, 565, 565, 565, 567, 567, 568, 570, 570, 571, 572, 572, 573, 575, 576, 577, 579, 579, 580, 581, 582, 583, 585, 586, 586, 587, 588, 588, 589, 590, 591, 592, 593, 594, 595, 595, 595, 595, 597, 598, 602, 603, 603, 604, 606, 606, 607, 608, 609, 610, 611, 612, 613, 615, 616, 618, 619, 620, 621, 621, 622, 622, 625, 629, 629, 630, 631, 631, 632, 634, 634, 635, 637, 637, 638, 641, 643, 644, 644, 646, 646, 647, 647, 648, 649, 650, 653, 654, 657, 658, 658, 659, 659, 661, 661, 664, 666, 666, 667, 668, 671, 671, 674, 675, 676, 678, 678, 678, 683, 686, 687, 687, 688, 690, 691, 691, 693, 693, 694, 696, 698, 698, 701, 703, 704, 706, 707, 708, 710, 710, 710, 711, 713, 0, 0, 0, 0, 0, 0, 0, 0, 0, 0, 0, 0, 0, 0, 0, 0, 0, 0, 0, 0, 0, 0, 0, 0, 0, 0, 0, 0, 0, 0, 0, 0, 0, 0, 0, 0, 0, 0, 0, 0, 0, 0, 0, 0, 0, 0, 0, 0, 0, 0, 0, 0, 0, 0, 0, 0, 0, 0, 0, 0, 0, 0, 0, 0, 0, 0, 0, 0, 0, 0, 0, 0, 0, 0, 0, 0, 0, 0, 0, 0, 0, 0, 0, 0, 0, 0, 0, 0, 0, 0, 0, 0, 0, 0, 0, 0, 0, 0, 0, 0, 0, 0, 0, 0, 0, 0, 0, 0, 0, 0, 0, 0, 0, 0, 0, 0, 0, 0, 0, 0, 0, 0, 0, 0, 0, 0, 0, 0, 0, 0, 0, 0, 0, 1007, 1004, 1004, 1007, 0, 0, 0, 1022, 0, 0, 0, 1038, 1038, 0, 1044, 1050, 1057, 1057, 1060, 1063, 1063, 1067, 1070, 1073, 1077, 1080, 1084, 1084, 1090, 1090, 1094, 1097, 1101, 1108, 1112, 1119, 1123, 1126, 1130, 1130, 1134, 1138, 1141, 1149, 1149, 1149, 1149, 1149, 1149, 1149, 1157, 1177, 1181, 1181, 1189, 1193, 1193, 1197, 1202, 1202, 1206, 1206, 1214, 1219, 1227, 1227, 1232, 1236, 1236, 1245, 1250, 1255, 1264, 1268, 1268, 1273, 1278, 1283, 1283, 1288, 1292, 1297, 1302, 1312, 1312, 1317, 1322, 1328, 1333, 1343, 1349, 1354, 1354, 1365, 1370, 1376, 1381, 1387, 1398, 1398, 1404, 1410, 1415, 1427, 1433, 1439, 1439, 1445, 1452, 1458, 1464, 1464, 1470, 1477, 1483, 1489, 1496, 1509, 1516, 1523, 1523, 1536, 1543, 1543, 1550, 1564, 1572, 1572, 1579, 1586, 1594, 1601, 1609, 1624, 1632, 1632, 1639, 1639, 1639, 1647, 1663, 1663, 1680, 1688, 1696, 1705, 1713, 1722, 1731, 1739, 1757, 1766, 1766, 1776, 1785, 1785, 1794, 1813, 1823, 1833, 1833, 1843, 1853, 1853, 1873, 1894, 1904, 1904, 1915, 1926, 1936, 1959, 1970, 1970, 1981, 1981, 2005, 2005, 2028, 2040, 2053, 2065, 2078, 2090, 2103, 2103, 2116, 2129, 2143, 2156, 2170, 2184, 2198, 2226, 2256, 2271, 2286, 2286, 2286, 2301, 2301, 2317, 2333, 2365, 2381, 2398, 2415, 2415, 2432, 2450, 2467, 2467, 2485, 2503, 2522, 2560, 2579, 2598, 2618, 2618, 2639, 2659, 2680, 2701, 2723, 2723, 2744, 2744, 2767, 2812, 2835, 2859, 2859, 2883, 2908, 2908, 2933, 2958, 3010, 3064, 3092, 3120, 3120, 3120, 3149, 3149, 3178, 3208, 3300, 3333, 3365, 3365, 3399, 3399, 3399, 3468, 3503, 3539, 3576, 3614, 3653, 3653, 3692, 3732, 3774, 3774, 3816, 3816, 3816, 3859, 3859, 3994, 4041, 4041, 4089, 4089, 4041, 3994, 3994, 3994, 3994, 3994, 4041, 4041, 4089, 4139, 4139, 4139, 4190, 0, 0, 0, 0, 0, 0, 0, 0, 0, 0, 0, 5640, 5734, 5734, 5734, 5734, 5734, 5640, 5640, 5640, 5640, 5640, 5640, 5640, 5640, 5640, 5640, 5734, 5734, 5734, 5832, 5734, 5734, 5640, 5640, 5640, 5640, 5640, 5734, 0, 0, 0, 0, 0, 0, 0, 0
529, 529, 530, 532, 532, 0, 0, 0, 0, 0, 0, 0, 0, 0, 0, 0, 0, 0, 0, 0, 0, 0, 0, 548, 548, 549, 550, 549, 551, 551, 551, 553, 553, 554, 554, 554, 554, 554, 564, 564, 565, 566, 567, 568, 568, 569, 570, 571, 572, 572, 574, 575, 576, 577, 578, 578, 580, 581, 582, 583, 584, 585, 586, 587, 588, 588, 589, 590, 591, 592, 593, 594, 595, 595, 596, 596, 598, 599, 601, 602, 603, 603, 604, 606, 607, 608, 609, 610, 611, 612, 613, 615, 616, 619, 619, 620, 621, 621, 622, 622, 624, 629, 630, 631, 631, 631, 632, 634, 634, 635, 636, 636, 638, 641, 643, 644, 644, 646, 646, 647, 647, 648, 649, 650, 653, 654, 655, 657, 658, 659, 659, 661, 662, 664, 666, 666, 667, 668, 671, 672, 675, 675, 676, 678, 678, 678, 683, 684, 687, 687, 688, 690, 691, 691, 693, 693, 696, 696, 698, 698, 701, 703, 704, 706, 707, 708, 710, 710, 710, 711, 713, 714, 0, 0, 0, 0, 0, 0, 0, 0, 0, 0, 0, 0, 0, 0, 0, 0, 0, 0, 0, 0, 0, 0, 0, 0, 0, 0, 0, 0, 0, 0, 0, 0, 0, 0, 0, 0, 0, 0, 0, 0, 0, 0, 0, 0, 0, 0, 0, 0, 0, 0, 0, 0, 0, 0, 0, 0, 0, 0, 0, 0, 0, 0, 0, 0, 0, 0, 0, 0, 0, 0, 0, 0, 0, 0, 0, 0, 0, 0, 0, 0, 0, 0, 0, 0, 0, 0, 0, 0, 0, 0, 0, 0, 0, 0, 0, 0, 0, 0, 0, 0, 0, 0, 0, 0, 0, 0, 0, 0, 0, 0, 0, 0, 0, 0, 0, 0, 0, 0, 0, 0, 0, 0, 0, 0, 0, 0, 0, 0, 0, 0, 0, 0, 1007, 1004, 1007, 1010, 1010, 1013, 1019, 1022, 1025, 1028, 1034, 1038, 1038, 1038, 1041, 1047, 1054, 1060, 1063, 1063, 1067, 1067, 1070, 1077, 1077, 1080, 1084, 1084, 1090, 1094, 1094, 1101, 1105, 1108, 1112, 1115, 1119, 1123, 1130, 1134, 1134, 1138, 1141, 1149, 1149, 1145, 1149, 1149, 1149, 1149, 1149, 1169, 1173, 1181, 1185, 1193, 1193, 1197, 1202, 1202, 1202, 1206, 1214, 1219, 1227, 1232, 1232, 1236, 1241, 1245, 1250, 1259, 1259, 1264, 1273, 1273, 1283, 1283, 1283, 1288, 1292, 1297, 1302, 1312, 1317, 1317, 1328, 1328, 1333, 1343, 1349, 1354, 1354, 1365, 1370, 1376, 1376, 1387, 1392, 1398, 1404, 1410, 1415, 1427, 1433, 1439, 1439, 1445, 1452, 1458, 1464, 1464, 1470, 1477, 1483, 1489, 1496, 1509, 1516, 1523, 1529, 1536, 1543, 1543, 1550, 1564, 1572, 1572, 1579, 1594, 1601, 1609, 1616, 1624, 1632, 1639, 1639, 1639, 1647, 1655, 1663, 1671, 1688, 1696, 1696, 1705, 1713, 1713, 1731, 1739, 1757, 1766, 1766, 1776, 1785, 1785, 1794, 1813, 1823, 1833, 1833, 1843, 1853, 1863, 1873, 1894, 1894, 1904, 1915, 1926, 1936, 1959, 1970, 1970, 1981, 1993, 2005, 2016, 2028, 2040, 2053, 2065, 2078, 2090, 2103, 2116, 2129, 2143, 2143, 2170, 2170, 2184, 2198, 2226, 2241, 2271, 2271, 2286, 2286, 2301, 2301, 2317, 2333, 2365, 2381, 2398, 2415, 2415, 2432, 2450, 2467, 2467, 2485, 2503, 2522, 2541, 2579, 2598, 2639, 2639, 2659, 2680, 2680, 2701, 2723, 2723, 2744, 2744, 2767, 2812, 2835, 2859, 2883, 2908, 2908, 2933, 2933, 2958, 3010, 3064, 3092, 3120, 3120, 3149, 3149, 3178, 3208, 3238, 3269, 3300, 3333, 3365, 3399, 3399, 3468, 3468, 3503, 3503, 3539, 3614, 3614, 3653, 3692, 3732, 3774, 3816, 3816, 3816, 3859, 3859, 3859, 3903, 3994, 4041, 4041, 4041, 4041, 3994, 3994, 3994, 3994, 3994, 4041, 4041, 4089, 4139, 4139, 4139, 4190, 0, 0, 0, 0, 0, 0, 0, 0, 0, 0, 0, 5734, 5734, 5832, 5734, 5734, 5734, 5640, 5640, 5734, 5734, 5640, 5640, 5640, 5734, 5734, 5734, 5734, 5734, 5734, 5734, 5734, 5734, 5640, 5640, 5640, 5640, 5640, 5734, 0, 0, 0, 0, 0, 0, 0, 0
529, 529, 532, 533, 534, 534, 534, 535, 535, 535, 536, 535, 0, 0, 0, 0, 0, 0, 546, 0, 0, 0, 0, 0, 548, 548, 549, 549, 550, 551, 551, 553, 553, 554, 554, 554, 554, 0, 564, 564, 565, 566, 567, 567, 568, 570, 570, 570, 571, 572, 573, 575, 576, 577, 578, 578, 580, 581, 583, 583, 585, 586, 586, 587, 588, 588, 589, 590, 591, 592, 593, 593, 595, 595, 596, 597, 598, 599, 601, 602, 603, 604, 604, 606, 607, 609, 610, 611, 612, 613, 614, 615, 616, 619, 620, 621, 621, 622, 622, 623, 625, 629, 630, 631, 631, 631, 632, 632, 634, 634, 636, 636, 637, 640, 643, 644, 644, 646, 646, 647, 648, 648, 649, 650, 653, 654, 655, 658, 658, 659, 661, 661, 662, 664, 664, 666, 666, 668, 671, 672, 674, 675, 676, 676, 676, 679, 684, 686, 687, 687, 690, 690, 691, 693, 693, 694, 696, 697, 698, 698, 701, 703, 704, 706, 707, 708, 710, 710, 710, 711, 713, 714, 0, 0, 0, 0, 0, 0, 0, 0, 0, 0, 0, 0, 0, 0, 0, 0, 0, 0, 0, 0, 0, 0, 0, 0, 0, 0, 0, 0, 0, 0, 0, 0, 0, 0, 0, 0, 0, 0, 0, 0, 0, 0, 0, 0, 0, 0, 0, 0, 0, 0, 0, 0, 0, 0, 0, 0, 0, 0, 0, 0, 0, 0, 0, 0, 0, 0, 0, 0, 0, 0, 0, 0, 0, 0, 0, 0, 0, 0, 0, 0, 0, 0, 0, 0, 0, 0, 0, 0, 0, 0, 0, 0, 0, 0, 0, 0, 0, 0, 0, 0, 0, 0, 0, 0, 0, 0, 0, 0, 0, 0, 0, 0, 0, 0, 0, 0, 0, 0, 0, 0, 0, 0, 0, 0, 0, 0, 0, 0, 0, 1001, 1001, 1004, 1007, 1004, 1007, 1010, 1013, 1016, 1019, 1022, 1025, 1028, 1031, 1034, 1034, 1038, 1041, 1044, 1054, 1060, 1063, 1063, 1067, 1067, 1070, 1073, 1077, 1080, 1084, 1084, 1090, 1094, 1097, 1101, 1105, 1108, 1108, 1115, 1119, 1126, 1130, 1134, 1138, 1138, 1145, 1145, 1149, 1145, 1149, 1149, 1145, 1149, 1145, 1145, 1173, 1177, 1185, 1193, 1193, 1197, 1202, 1202, 1206, 1210, 1214, 1219, 1223, 1227, 1232, 1236, 1241, 1245, 1250, 1255, 1259, 1264, 1273, 1278, 1283, 1283, 1283, 1292, 1297, 1302, 1307, 1317, 1322, 1322, 1328, 1333, 1333, 1343, 1349, 1354, 1354, 1359, 1370, 1376, 1376, 1387, 1392, 1398, 1404, 1410, 1421, 1427, 1433, 1439, 1445, 1445, 1452, 1458, 1464, 1464, 1470, 1470, 1477, 1483, 1496, 1509, 1516, 1523, 1529, 1536, 1543, 1543, 1557, 1564, 1572, 1579, 1579, 1586, 1601, 1609, 1616, 1624, 1632, 1639, 1639, 1639, 1647, 1655, 1663, 1671, 1688, 1696, 1696, 1705, 1713, 1713, 1731, 1739, 1748, 1766, 1766, 1776, 1785, 1785, 1794, 1813, 1823, 1833, 1833, 1843, 1853, 1863, 1873, 1894, 1894, 1904, 1915, 1926, 1936, 1947, 1970, 1970, 1981, 1993, 2005, 2016, 2028, 2040, 2053, 2065, 2090, 2103, 2103, 2116, 2129, 2143, 2143, 2156, 2170, 2184, 2198, 2212, 2241, 2256, 2271, 2286, 2286, 2301, 2301, 2317, 2349, 2365, 2381, 2398, 2415, 2415, 2432, 2450, 2467, 2467, 2485, 2503, 2522, 2560, 2598, 2618, 2639, 2659, 2659, 2680, 2680, 2723, 2723, 2744, 2744, 2744, 2767, 2812, 2835, 2859, 2883, 2908, 2908, 2933, 2958, 2984, 3010, 3064, 3092, 3120, 3120, 3149, 3149, 3178, 3208, 3238, 3300, 3365, 3365, 3365, 3399, 3433, 3468, 3503, 3503, 3539, 3576, 3614, 3614, 3653, 3692, 3732, 3774, 3816, 3816, 3816, 3859, 3903, 3903, 3948, 3994, 4041, 4089, 4089, 4041, 3994, 3994, 3994, 3994, 4041, 4041, 4041, 4139, 4139, 4139, 4190, 0, 0, 0, 0, 0, 0, 0, 0, 0, 0, 0, 0, 5640, 5734, 5832, 5734, 5734, 5734, 5734, 5734, 5734, 5734, 5734, 5734, 5734, 5734, 5734, 5734, 5734, 5734, 5734, 5734, 5734, 5734, 5640, 5640, 5640, 5640, 5640, 5734, 0, 0, 0, 0, 0, 0, 0, 0
529, 531, 533, 534, 534, 534, 534, 535, 535, 536, 536, 0, 0, 0, 0, 0, 0, 0, 544, 0, 0, 0, 0, 0, 548, 549, 549, 550, 554, 554, 554, 554, 554, 555, 555, 554, 554, 0, 564, 564, 565, 566, 567, 567, 568, 569, 570, 570, 571, 572, 573, 575, 577, 578, 579, 579, 580, 582, 583, 584, 585, 586, 586, 587, 587, 589, 590, 590, 592, 592, 593, 594, 595, 595, 597, 598, 599, 599, 601, 602, 602, 604, 606, 607, 608, 609, 610, 611, 612, 613, 614, 615, 616, 620, 620, 621, 621, 622, 622, 623, 625, 629, 630, 631, 631, 632, 632, 632, 632, 634, 636, 636, 637, 640, 641, 644, 644, 646, 646, 647, 647, 648, 649, 652, 653, 654, 655, 657, 658, 659, 661, 661, 662, 663, 664, 666, 667, 668, 671, 672, 674, 675, 676, 676, 678, 679, 683, 684, 687, 687, 690, 690, 691, 693, 693, 693, 696, 697, 698, 700, 701, 703, 704, 706, 706, 707, 708, 710, 710, 713, 713, 0, 0, 0, 0, 0, 0, 0, 0, 0, 0, 0, 0, 0, 0, 0, 0, 0, 0, 0, 0, 0, 0, 0, 0, 0, 0, 0, 0, 0, 0, 0, 0, 0, 0, 0, 0, 0, 0, 0, 0, 0, 0, 0, 0, 0, 0, 0, 0, 0, 0, 0, 0, 0, 0, 0, 0, 0, 0, 0, 0, 0, 0, 0, 0, 0, 0, 0, 0, 0, 0, 0, 0, 0, 0, 0, 0, 0, 0, 0, 0, 0, 0, 0, 0, 0, 0, 0, 0, 0, 0, 0, 0, 0, 0, 0, 0, 0, 0, 0, 0, 0, 0, 0, 0, 0, 0, 0, 0, 0, 0, 0, 0, 0, 0, 0, 0, 0, 0, 0, 0, 0, 0, 0, 0, 0, 0, 0, 0, 0, 0, 998, 1001, 1004, 1004, 1004, 1007, 1010, 1013, 1013, 1019, 1022, 1025, 1028, 1028, 1034, 1034, 1038, 1041, 1044, 1054, 1060, 1063, 1063, 1067, 1070, 1070, 1077, 1077, 1080, 1084, 1087, 1090, 1094, 1097, 1101, 1105, 1108, 1112, 1115, 1123, 1126, 1130, 1134, 1138, 1138, 1145, 1145, 1149, 1145, 1149, 1145, 1145, 1149, 1145, 1141, 1153, 1181, 1189, 1193, 1193, 1197, 1202, 1202, 1206, 1210, 1214, 1219, 1223, 1227, 1232, 1236, 1245, 1250, 1250, 1255, 1264, 1264, 1268, 1273, 1278, 1278, 1283, 1288, 1292, 1302, 1312, 1322, 1322, 1328, 1333, 1333, 1333, 1343, 1349, 1354, 1354, 1359, 1370, 1370, 1376, 1381, 1392, 1398, 1398, 1410, 1415, 1421, 1427, 1433, 1439, 1445, 1452, 1458, 1464, 1464, 1470, 1470, 1477, 1483, 1496, 1509, 1516, 1516, 1523, 1529, 1543, 1550, 1557, 1564, 1572, 1579, 1579, 1594, 1601, 1609, 1616, 1624, 1632, 1632, 1639, 1639, 1639, 1655, 1671, 1671, 1696, 1696, 1705, 1705, 1713, 1722, 1731, 1739, 1748, 1757, 1766, 1776, 1785, 1785, 1804, 1813, 1833, 1833, 1833, 1843, 1853, 1863, 1883, 1894, 1894, 1904, 1915, 1926, 1936, 1947, 1959, 1981, 1981, 1993, 2005, 2016, 2028, 2040, 2053, 2065, 2078, 2103, 2103, 2116, 2129, 2129, 2143, 2156, 2170, 2184, 2198, 2212, 2241, 2256, 2271, 2286, 2286, 2301, 2317, 2333, 2349, 2365, 2381, 2398, 2415, 2415, 2432, 2450, 2467, 2467, 2485, 2503, 2541, 2579, 2598, 2618, 2639, 2659, 2659, 2680, 2701, 2723, 2723, 2744, 2744, 2744, 2767, 2812, 2835, 2859, 2883, 2908, 2908, 2933, 2958, 2984, 3010, 3064, 3092, 3120, 3149, 3149, 3149, 3208, 3208, 3238, 3300, 3365, 3365, 3365, 3399, 3468, 3503, 3503, 3539, 3539, 3576, 3614, 3653, 3653, 3692, 3732, 3774, 3816, 3816, 3859, 3859, 3903, 3948, 3994, 4041, 4041, 4089, 4089, 4089, 4041, 3994, 3994, 3994, 4041, 4041, 4041, 4139, 4139, 4139, 4190, 0, 0, 0, 0, 0, 0, 0, 0, 0, 0, 0, 0, 5832, 5832, 5832, 5832, 5832, 5734, 5734, 5734, 5734, 5734, 5640, 5734, 5734, 5832, 5832, 5832, 5832, 5734, 5832, 5734, 5734, 5734, 5640, 5640, 5640, 5640, 5640, 5734, 0, 0, 0, 0, 0, 0, 0, 0
529, 532, 533, 533, 534, 534, 534, 535, 535, 536, 536, 536, 0, 0, 0, 0, 0, 0, 543, 543, 543, 0, 0, 0, 549, 549, 549, 550, 554, 554, 554, 554, 554, 556, 556, 555, 555, 0, 565, 565, 565, 566, 567, 567, 568, 569, 569, 570, 572, 573, 574, 575, 576, 577, 578, 579, 580, 582, 583, 584, 585, 586, 586, 587, 587, 589, 590, 591, 592, 594, 595, 595, 595, 596, 598, 599, 599, 599, 600, 601, 602, 604, 606, 607, 608, 610, 611, 611, 612, 613, 614, 615, 616, 620, 620, 621, 621, 622, 622, 623, 624, 629, 630, 631, 631, 632, 632, 634, 634, 634, 636, 637, 637, 640, 641, 644, 644, 646, 646, 647, 648, 649, 650, 652, 653, 654, 655, 657, 659, 659, 661, 661, 662, 663, 664, 666, 667, 668, 671, 672, 674, 674, 675, 676, 678, 680, 683, 684, 686, 687, 687, 688, 691, 693, 693, 694, 696, 697, 698, 698, 701, 703, 704, 704, 706, 707, 708, 710, 711, 713, 0, 0, 0, 0, 0, 0, 0, 0, 0, 0, 0, 0, 0, 0, 0, 0, 0, 0, 0, 0, 0, 0, 0, 0, 0, 0, 0, 0, 0, 0, 0, 0, 0, 0, 0, 0, 0, 0, 0, 0, 0, 0, 0, 0, 0, 0, 0, 0, 0, 0, 0, 0, 0, 0, 0, 0, 0, 0, 0, 0, 0, 0, 0, 0, 0, 0, 0, 0, 0, 0, 0, 0, 0, 0, 0, 0, 0, 0, 0, 0, 0, 0, 0, 0, 0, 0, 0, 0, 0, 0, 0, 0, 0, 0, 0, 0, 0, 0, 0, 0, 0, 0, 0, 0, 0, 0, 0, 0, 0, 0, 0, 0, 0, 0, 0, 0, 0, 0, 0, 0, 0, 0, 967, 0, 0, 0, 0, 0, 0, 989, 992, 998, 998, 1007, 1007, 1007, 1010, 1013, 1013, 1016, 1019, 1022, 1025, 1028, 1031, 1034, 1034, 1038, 1041, 1044, 1054, 1060, 1063, 1063, 1067, 1067, 1070, 1073, 1077, 1077, 1080, 1087, 1090, 1094, 1101, 1105, 1105, 1108, 1112, 1119, 1123, 1126, 1130, 1134, 1134, 1138, 1141, 1145, 1145, 1145, 1149, 1149, 1145, 1145, 1149, 1149, 1153, 1181, 1189, 1193, 1193, 1197, 1202, 1202, 1206, 1210, 1214, 1214, 1219, 1223, 1232, 1236, 1245, 1250, 1255, 1255, 1264, 1264, 1268, 1273, 1278, 1278, 1283, 1288, 1292, 1302, 1312, 1322, 1322, 1328, 1333, 1333, 1338, 1343, 1349, 1349, 1354, 1359, 1365, 1370, 1376, 1381, 1392, 1398, 1398, 1410, 1415, 1421, 1433, 1433, 1439, 1445, 1445, 1458, 1464, 1464, 1470, 1470, 1477, 1489, 1496, 1509, 1516, 1523, 1529, 1529, 1543, 1550, 1557, 1564, 1572, 1572, 1579, 1594, 1601, 1609, 1616, 1624, 1632, 1632, 1632, 1639, 1639, 1655, 1680, 1680, 1696, 1696, 1705, 1705, 1713, 1722, 1731, 1739, 1748, 1757, 1766, 1776, 1785, 1794, 1804, 1813, 1833, 1843, 1833, 1843, 1853, 1863, 1873, 1894, 1904, 1904, 1915, 1926, 1947, 1959, 1959, 1981, 1981, 1993, 2005, 2016, 2028, 2040, 2053, 2065, 2078, 2090, 2103, 2116, 2116, 2129, 2143, 2156, 2170, 2184, 2198, 2212, 2241, 2256, 2271, 2271, 2286, 2301, 2317, 2333, 2349, 2365, 2381, 2398, 2415, 2432, 2432, 2450, 2467, 2485, 2503, 2522, 2560, 2579, 2598, 2618, 2639, 2659, 2659, 2680, 2701, 2723, 2744, 2744, 2744, 2767, 2789, 2789, 2835, 2859, 2883, 2908, 2933, 2958, 2984, 3010, 3037, 3037, 3092, 3120, 3149, 3149, 3178, 3208, 3238, 3269, 3300, 3333, 3365, 3399, 3468, 3468, 3503, 3503, 3539, 3539, 3576, 3614, 3653, 3653, 3692, 3692, 3774, 3816, 3816, 3859, 3903, 3948, 3994, 3994, 4041, 4041, 4041, 4089, 4041, 4041, 3994, 3994, 3994, 4041, 4041, 4041, 4089, 4139, 0, 0, 0, 0, 0, 0, 0, 0, 0, 0, 0, 0, 0, 0, 5832, 5832, 5832, 5832, 5832, 5734, 5734, 5734, 5734, 5640, 5640, 5734, 5734, 5734, 5832, 5832, 5832, 5734, 5734, 5734, 5640, 5640, 5640, 5640, 5640, 5640, 5640, 5640, 0, 0, 0, 0, 0, 0, 0, 0
0, 531, 532, 533, 534, 534, 534, 535, 535, 535, 535, 535, 0, 0, 0, 0, 0, 542, 543, 543, 544, 0, 0, 0, 0, 0, 0, 550, 552, 551, 554, 553, 553, 556, 556, 555, 555, 0, 566, 566, 566, 566, 567, 567, 568, 568, 569, 570, 572, 573, 575, 575, 576, 577, 578, 578, 580, 581, 583, 584, 585, 586, 586, 587, 587, 589, 590, 592, 592, 594, 595, 595, 596, 596, 598, 599, 599, 600, 600, 601, 601, 603, 604, 606, 608, 609, 610, 612, 613, 615, 615, 615, 616, 619, 620, 621, 621, 622, 622, 623, 623, 629, 630, 631, 631, 632, 632, 632, 634, 635, 636, 637, 640, 641, 643, 644, 644, 646, 646, 648, 648, 650, 650, 653, 653, 654, 655, 657, 658, 659, 661, 661, 661, 662, 664, 666, 667, 671, 674, 674, 675, 675, 676, 676, 678, 680, 682, 683, 686, 687, 688, 690, 691, 693, 693, 694, 696, 697, 698, 700, 701, 703, 704, 704, 706, 708, 710, 710, 0, 0, 0, 0, 0, 0, 0, 0, 0, 0, 0, 0, 0, 0, 0, 0, 0, 0, 0, 0, 0, 0, 0, 0, 0, 0, 0, 0, 0, 0, 0, 0, 0, 0, 0, 0, 0, 0, 0, 0, 0, 0, 0, 0, 0, 0, 0, 0, 0, 0, 0, 0, 0, 0, 0, 0, 0, 0, 0, 0, 0, 0, 0, 0, 0, 0, 0, 0, 0, 0, 0, 0, 0, 0, 0, 0, 0, 0, 0, 0, 0, 0, 0, 0, 0, 0, 0, 0, 0, 0, 0, 0, 0, 0, 0, 0, 0, 0, 0, 0, 0, 0, 0, 0, 0, 0, 0, 0, 0, 0, 0, 0, 0, 0, 0, 0, 0, 0, 0, 0, 0, 0, 0, 0, 973, 0, 978, 978, 978, 984, 984, 989, 992, 998, 1001, 1007, 1007, 1007, 1010, 1010, 1013, 1016, 1019, 1022, 1025, 1028, 1028, 1034, 1034, 1038, 1041, 1044, 1054, 1060, 1063, 1063, 1067, 1067, 1070, 1077, 1077, 1080, 1080, 1087, 1090, 1097, 1101, 1105, 1105, 1108, 1108, 1119, 1123, 1126, 1130, 1134, 1134, 1138, 1141, 1141, 1145, 1145, 1149, 1149, 1145, 1145, 1145, 1149, 1149, 1185, 1189, 1193, 1193, 1197, 1202, 1206, 1210, 1210, 1214, 1219, 1219, 1227, 1236, 1241, 1250, 1250, 1255, 1259, 1264, 1268, 1273, 1273, 1278, 1278, 1283, 1288, 1292, 1302, 1307, 1322, 1322, 1328, 1333, 1333, 1333, 1338, 1343, 1349, 1354, 1359, 1370, 1370, 1376, 1381, 1387, 1392, 1398, 1404, 1415, 1421, 1427, 1433, 1439, 1439, 1445, 1452, 1464, 1464, 1470, 1470, 1477, 1489, 1496, 1509, 1516, 1523, 1529, 1529, 1543, 1543, 1557, 1564, 1572, 1572, 1579, 1594, 1601, 1609, 1616, 1624, 1632, 1632, 1632, 1639, 1639, 1663, 1680, 1688, 1696, 1696, 1705, 1705, 1713, 1722, 1731, 1739, 1748, 1766, 1766, 1776, 1785, 1794, 1794, 1813, 1823, 1833, 1833, 1843, 1853, 1853, 1873, 1894, 1894, 1904, 1915, 1936, 1959, 1959, 1970, 1981, 1981, 1993, 2005, 2016, 2028, 2040, 2053, 2065, 2078, 2090, 2103, 2116, 2116, 2129, 2143, 2156, 2170, 2184, 2198, 2212, 2241, 2271, 2271, 2286, 2301, 2301, 2317, 2333, 2349, 2365, 2381, 2398, 2415, 2415, 2432, 2450, 2467, 2485, 2503, 2522, 2560, 2579, 2598, 2618, 2639, 2639, 2659, 2680, 2701, 2723, 2744, 2744, 2744, 2767, 2789, 2812, 2835, 2859, 2883, 2908, 2933, 2958, 2984, 3010, 3037, 3064, 3092, 3120, 3149, 3149, 3178, 3208, 3238, 3269, 3300, 3365, 3365, 3399, 3468, 3468, 3503, 3503, 3503, 3539, 3576, 3614, 3653, 3653, 3692, 3692, 3774, 3816, 3859, 3859, 3903, 3948, 3948, 3994, 3994, 4041, 4041, 4089, 4089, 4041, 4041, 4041, 4041, 4041, 4041, 4041, 4041, 4089, 0, 0, 0, 0, 0, 0, 0, 0, 0, 0, 0, 0, 0, 5640, 5734, 5734, 5832, 5832, 5832, 5832, 5734, 5734, 5832, 5832, 5734, 5832, 5734, 5734, 5832, 5832, 5734, 5734, 5734, 5640, 5640, 5640, 5640, 5640, 5640, 5640, 5640, 5640, 0, 0, 0, 0, 0, 0, 0, 0
0, 531, 532, 533, 533, 534, 534, 535, 535, 535, 536, 535, 536, 0, 540, 542, 542, 542, 543, 0, 0, 0, 0, 0, 0, 0, 0, 548, 548, 548, 554, 554, 555, 556, 556, 555, 555, 557, 567, 567, 566, 567, 567, 567, 567, 568, 569, 569, 572, 574, 575, 575, 576, 577, 577, 578, 580, 582, 583, 584, 585, 586, 586, 587, 588, 590, 591, 593, 593, 595, 596, 595, 596, 596, 598, 599, 599, 599, 600, 601, 602, 603, 606, 607, 608, 609, 610, 613, 615, 615, 615, 616, 616, 618, 619, 620, 621, 622, 622, 623, 624, 629, 630, 631, 631, 632, 632, 634, 634, 635, 636, 638, 640, 641, 642, 643, 644, 646, 646, 648, 649, 650, 650, 653, 653, 655, 655, 657, 658, 659, 661, 661, 661, 662, 664, 666, 667, 671, 674, 674, 675, 675, 676, 676, 678, 679, 683, 684, 686, 687, 687, 687, 690, 691, 693, 694, 696, 697, 698, 698, 701, 703, 704, 704, 707, 708, 710, 710, 0, 0, 0, 0, 0, 0, 0, 0, 0, 0, 0, 0, 0, 0, 0, 0, 0, 0, 0, 0, 0, 0, 0, 0, 0, 0, 0, 0, 0, 0, 0, 0, 0, 0, 0, 0, 0, 0, 0, 0, 0, 0, 0, 0, 0, 0, 0, 0, 0, 0, 0, 0, 0, 0, 0, 0, 0, 0, 0, 0, 0, 0, 0, 0, 0, 0, 0, 0, 0, 0, 0, 0, 0, 0, 0, 0, 0, 0, 0, 0, 0, 0, 0, 0, 0, 0, 0, 0, 0, 0, 0, 0, 0, 0, 0, 0, 0, 0, 0, 0, 0, 0, 0, 0, 0, 0, 0, 0, 0, 0, 0, 0, 0, 0, 0, 0, 0, 0, 0, 0, 0, 0, 0, 0, 975, 975, 978, 978, 978, 984, 984, 989, 992, 992, 998, 1007, 1007, 1007, 1007, 1010, 1013, 1013, 1016, 1022, 1025, 1028, 1028, 1031, 1034, 1038, 1041, 1047, 1054, 1060, 1060, 1063, 1063, 1067, 1070, 1077, 1077, 1080, 1084, 1087, 1090, 1097, 1101, 1105, 1105, 1108, 1108, 1115, 1123, 1126, 1130, 1134, 1134, 1138, 1141, 1141, 1145, 1145, 1149, 1149, 1145, 1145, 1145, 1149, 1149, 1185, 1189, 1193, 1193, 1197, 1202, 1206, 1210, 1214, 1214, 1219, 1223, 1227, 1236, 1245, 1250, 1250, 1255, 1259, 1264, 1264, 1273, 1273, 1283, 1283, 1288, 1288, 1297, 1302, 1307, 1317, 1322, 1322, 1333, 1333, 1338, 1343, 1349, 1349, 1354, 1359, 1365, 1376, 1376, 1381, 1387, 1392, 1398, 1404, 1415, 1421, 1427, 1433, 1439, 1439, 1445, 1452, 1458, 1464, 1470, 1470, 1477, 1489, 1496, 1503, 1509, 1516, 1529, 1529, 1543, 1550, 1557, 1564, 1572, 1572, 1579, 1586, 1594, 1609, 1616, 1624, 1624, 1632, 1632, 1632, 1639, 1655, 1688, 1688, 1696, 1705, 1705, 1705, 1713, 1722, 1731, 1739, 1757, 1766, 1766, 1776, 1785, 1794, 1804, 1813, 1823, 1833, 1833, 1843, 1853, 1863, 1873, 1894, 1894, 1915, 1915, 1936, 1959, 1959, 1970, 1981, 1993, 2005, 2016, 2016, 2028, 2040, 2053, 2065, 2078, 2090, 2103, 2103, 2129, 2129, 2143, 2156, 2170, 2184, 2198, 2212, 2241, 2271, 2271, 2286, 2301, 2301, 2333, 2333, 2349, 2365, 2381, 2381, 2415, 2415, 2432, 2450, 2450, 2467, 2503, 2541, 2579, 2579, 2598, 2618, 2639, 2639, 2659, 2680, 2701, 2723, 2744, 2744, 2767, 2789, 2812, 2835, 2859, 2883, 2908, 2933, 2933, 2958, 2984, 3010, 3037, 3064, 3092, 3120, 3149, 3149, 3178, 3208, 3238, 3269, 3300, 3365, 3365, 3399, 3468, 3503, 3503, 3503, 3539, 3539, 3576, 3614, 3653, 3653, 3732, 3732, 3774, 3816, 3859, 3859, 3903, 3948, 3994, 3994, 4041, 4041, 4041, 4089, 4089, 4041, 4041, 4041, 4041, 4089, 4089, 4089, 4089, 4139, 0, 0, 0, 0, 0, 0, 0, 0, 0, 0, 0, 0, 5640, 5640, 5734, 5734, 5832, 5832, 5832, 5832, 5832, 5832, 5832, 5832, 5832, 5832, 5832, 5832, 5832, 5832, 5832, 5734, 5734, 5640, 5640, 5640, 5640, 5640, 5640, 5640, 5640, 5640, 0, 0, 0, 0, 0, 0, 0, 0
0, 0, 0, 0, 0, 534, 535, 536, 536, 536, 537, 538, 539, 540, 540, 0, 542, 542, 542, 0, 0, 0, 0, 0, 0, 0, 548, 548, 549, 548, 0, 0, 0, 556, 556, 555, 556, 557, 557, 567, 567, 566, 567, 566, 567, 568, 569, 569, 573, 574, 575, 575, 576, 577, 577, 578, 580, 582, 583, 584, 584, 585, 586, 587, 587, 590, 591, 593, 594, 595, 595, 595, 596, 596, 598, 599, 599, 600, 600, 601, 601, 603, 606, 607, 608, 609, 610, 615, 615, 615, 616, 616, 616, 618, 619, 620, 621, 622, 622, 623, 624, 628, 630, 631, 632, 632, 634, 634, 635, 635, 636, 637, 638, 640, 641, 642, 644, 646, 647, 648, 649, 650, 650, 653, 653, 655, 655, 657, 659, 659, 661, 661, 661, 662, 664, 667, 668, 671, 674, 674, 674, 675, 675, 676, 678, 680, 683, 684, 686, 687, 687, 687, 690, 691, 693, 694, 696, 697, 698, 700, 701, 704, 704, 704, 706, 708, 710, 0, 0, 0, 0, 0, 0, 0, 0, 0, 0, 0, 0, 0, 0, 0, 0, 0, 0, 0, 0, 0, 0, 0, 0, 0, 0, 0, 0, 0, 0, 0, 0, 0, 0, 0, 0, 0, 0, 0, 0, 0, 0, 0, 0, 0, 0, 0, 0, 0, 0, 0, 0, 0, 0, 0, 0, 0, 0, 0, 0, 0, 0, 0, 0, 0, 0, 0, 0, 0, 0, 0, 0, 0, 0, 0, 0, 0, 0, 0, 0, 0, 0, 0, 0, 0, 0, 0, 0, 0, 0, 0, 0, 0, 0, 0, 0, 0, 0, 0, 0, 0, 0, 0, 0, 0, 0, 0, 0, 0, 0, 0, 0, 0, 0, 0, 0, 0, 0, 0, 0, 0, 0, 0, 0, 0, 975, 975, 978, 981, 981, 984, 984, 989, 989, 992, 995, 1001, 1004, 1007, 1010, 1013, 1013, 1016, 1019, 1025, 1025, 1028, 1028, 1031, 1034, 1038, 1041, 1050, 1060, 1060, 1063, 1063, 1067, 1067, 1070, 1077, 1077, 1080, 1080, 1087, 1090, 1101, 1105, 1105, 1105, 1108, 1108, 1115, 1119, 1123, 1130, 1134, 1134, 1138, 1141, 1141, 1145, 1145, 1145, 1145, 1145, 1145, 1145, 1149, 1149, 1181, 1189, 1189, 1193, 1197, 1202, 1206, 1210, 1214, 1214, 1214, 1223, 1232, 1245, 1245, 1250, 1255, 1255, 1259, 1264, 1268, 1273, 1273, 1283, 1283, 1288, 1292, 1297, 1302, 1312, 1317, 1322, 1328, 1333, 1333, 1338, 1338, 1343, 1349, 1354, 1354, 1365, 1376, 1381, 1387, 1392, 1398, 1404, 1404, 1415, 1421, 1433, 1433, 1439, 1439, 1445, 1452, 1458, 1464, 1470, 1477, 1483, 1489, 1496, 1503, 1509, 1516, 1523, 1523, 1536, 1550, 1557, 1572, 1572, 1579, 1579, 1586, 1594, 1609, 1616, 1624, 1624, 1632, 1632, 1632, 1639, 1655, 1688, 1688, 1696, 1705, 1705, 1705, 1713, 1722, 1731, 1739, 1757, 1766, 1766, 1776, 1785, 1794, 1804, 1813, 1823, 1833, 1833, 1843, 1853, 1863, 1873, 1894, 1894, 1904, 1915, 1936, 1959, 1959, 1970, 1981, 1993, 2005, 2005, 2016, 2028, 2040, 2053, 2065, 2078, 2090, 2103, 2116, 2129, 2143, 2156, 2156, 2170, 2184, 2198, 2212, 2241, 2256, 2271, 2286, 2301, 2317, 2333, 2333, 2349, 2365, 2381, 2381, 2415, 2415, 2432, 2432, 2450, 2467, 2503, 2541, 2579, 2598, 2618, 2618, 2639, 2639, 2659, 2680, 2701, 2744, 2744, 2767, 2767, 2789, 2812, 2835, 2883, 2908, 2908, 2933, 2933, 2958, 2984, 3010, 3037, 3064, 3092, 3120, 3149, 3149, 3178, 3208, 3269, 3300, 3333, 3365, 3399, 3399, 3433, 3468, 3503, 3503, 3539, 3539, 3576, 3614, 3614, 3653, 3732, 3692, 3774, 3816, 3859, 3903, 3948, 3994, 4041, 4041, 4041, 4041, 4089, 4089, 4089, 4041, 4041, 4041, 4041, 4089, 4139, 4089, 4089, 4190, 0, 0, 0, 0, 0, 0, 0, 0, 0, 0, 0, 0, 5640, 5734, 5734, 5734, 5734, 5734, 5832, 5832, 5832, 5832, 5832, 5832, 5734, 5832, 5734, 5734, 5832, 5832, 5832, 5734, 5734, 5640, 5640, 5640, 5640, 5640, 5640, 5640, 5640, 5640, 0, 0, 0, 0, 0, 0, 0, 0
0, 0, 0, 0, 0, 535, 536, 536, 536, 537, 537, 538, 539, 540, 540, 540, 541, 541, 542, 0, 0, 0, 0, 0, 0, 0, 0, 549, 549, 548, 0, 0, 0, 0, 558, 557, 557, 559, 568, 567, 567, 566, 567, 566, 567, 568, 569, 569, 574, 575, 576, 576, 576, 577, 577, 578, 580, 581, 583, 583, 584, 585, 586, 586, 588, 591, 591, 592, 593, 595, 595, 596, 596, 597, 599, 599, 600, 600, 600, 601, 602, 604, 606, 607, 608, 609, 610, 615, 615, 616, 616, 616, 616, 618, 619, 620, 621, 622, 622, 623, 624, 628, 629, 630, 631, 632, 632, 634, 634, 635, 636, 637, 638, 640, 641, 643, 644, 646, 647, 649, 649, 650, 650, 652, 653, 654, 655, 657, 659, 659, 661, 662, 662, 663, 666, 668, 668, 671, 672, 674, 674, 675, 675, 676, 678, 680, 683, 684, 686, 686, 687, 686, 688, 691, 693, 696, 697, 697, 698, 700, 701, 704, 704, 704, 0, 0, 0, 0, 0, 0, 0, 0, 0, 0, 0, 0, 0, 0, 0, 0, 0, 0, 0, 0, 0, 0, 0, 0, 0, 0, 0, 0, 0, 0, 0, 0, 0, 0, 0, 0, 0, 0, 0, 0, 0, 0, 0, 0, 0, 0, 0, 0, 0, 0, 0, 0, 0, 0, 0, 0, 0, 0, 0, 0, 0, 0, 0, 0, 0, 0, 0, 0, 0, 0, 0, 0, 0, 0, 0, 0, 0, 0, 0, 0, 0, 0, 0, 0, 0, 0, 0, 0, 0, 0, 0, 0, 0, 0, 0, 0, 0, 0, 0, 0, 0, 0, 0, 0, 0, 0, 0, 0, 0, 0, 0, 0, 0, 0, 0, 0, 0, 0, 0, 0, 0, 0, 0, 0, 0, 0, 0, 970, 973, 975, 978, 981, 981, 984, 984, 989, 989, 989, 992, 1001, 1004, 1004, 1007, 1013, 1013, 1016, 1019, 1025, 1025, 1028, 1028, 1031, 1034, 1038, 1041, 1050, 1060, 1060, 1063, 1063, 1067, 1067, 1070, 1077, 1080, 1080, 1084, 1090, 1090, 1097, 1101, 1105, 1105, 1108, 1108, 1115, 1123, 1126, 1130, 1134, 1134, 1138, 1141, 1141, 1145, 1145, 1145, 1145, 1145, 1145, 1145, 1145, 1149, 1185, 1189, 1193, 1193, 1197, 1206, 1206, 1210, 1214, 1214, 1214, 1219, 1227, 1241, 1245, 1250, 1250, 1255, 1259, 1264, 1268, 1273, 1273, 1278, 1283, 1288, 1292, 1297, 1307, 1312, 1322, 1322, 1328, 1333, 1333, 1338, 1338, 1343, 1349, 1354, 1354, 1365, 1376, 1381, 1387, 1392, 1398, 1404, 1404, 1415, 1421, 1433, 1433, 1439, 1439, 1445, 1452, 1458, 1464, 1470, 1477, 1483, 1489, 1496, 1503, 1509, 1516, 1523, 1523, 1536, 1550, 1564, 1572, 1572, 1579, 1579, 1586, 1594, 1601, 1609, 1616, 1624, 1632, 1632, 1639, 1639, 1655, 1680, 1688, 1696, 1705, 1705, 1705, 1713, 1731, 1731, 1739, 1757, 1766, 1766, 1776, 1785, 1804, 1804, 1813, 1823, 1833, 1833, 1843, 1853, 1863, 1873, 1894, 1904, 1915, 1926, 1936, 1959, 1959, 1970, 1981, 1993, 2005, 2005, 2016, 2028, 2040, 2053, 2053, 2078, 2090, 2103, 2116, 2129, 2143, 2156, 2170, 2170, 2184, 2198, 2212, 2241, 2256, 2271, 2286, 2301, 2317, 2333, 2333, 2349, 2365, 2381, 2398, 2415, 2415, 2432, 2432, 2450, 2467, 2503, 2541, 2579, 2598, 2598, 2618, 2639, 2639, 2659, 2680, 2701, 2744, 2744, 2767, 2767, 2789, 2812, 2835, 2859, 2908, 2908, 2933, 2933, 2958, 2984, 3010, 3037, 3064, 3092, 3149, 3149, 3178, 3208, 3238, 3269, 3300, 3333, 3399, 3399, 3399, 3433, 3468, 3503, 3503, 3539, 3539, 3576, 3576, 3614, 3692, 3732, 3732, 3774, 3816, 3816, 3903, 3948, 3994, 4041, 4041, 4041, 4089, 4089, 4089, 4089, 4089, 4041, 4041, 4089, 4089, 4139, 4139, 4139, 4190, 0, 0, 0, 0, 0, 0, 0, 0, 0, 0, 0, 0, 5734, 5734, 5734, 5734, 5734, 5734, 5832, 5832, 5832, 5832, 5832, 5832, 5832, 5832, 5832, 5832, 5832, 5832, 5734, 5640, 5640, 5640, 5640, 5640, 5640, 5640, 5640, 5548, 5640, 5640, 0, 0, 0, 0, 0, 0, 0, 0
0, 0, 0, 0, 0, 535, 536, 536, 537, 537, 537, 538, 539, 540, 540, 540, 540, 541, 542, 0, 0, 0, 0, 0, 0, 0, 0, 0, 552, 0, 0, 0, 0, 0, 0, 0, 0, 560, 567, 566, 566, 566, 566, 566, 567, 568, 569, 569, 574, 575, 575, 575, 576, 576, 578, 579, 582, 583, 584, 584, 584, 585, 586, 587, 588, 591, 591, 592, 593, 595, 595, 596, 596, 597, 599, 599, 600, 600, 601, 601, 602, 603, 607, 608, 609, 609, 610, 613, 615, 616, 616, 616, 616, 618, 619, 620, 621, 622, 622, 623, 624, 627, 629, 630, 631, 632, 632, 632, 634, 635, 636, 637, 640, 640, 641, 642, 644, 647, 648, 649, 650, 650, 652, 653, 653, 655, 655, 657, 659, 661, 661, 662, 662, 664, 666, 668, 670, 671, 672, 674, 674, 675, 676, 678, 680, 680, 682, 683, 686, 686, 686, 687, 688, 688, 693, 694, 696, 697, 698, 0, 0, 704, 704, 0, 0, 0, 0, 0, 0, 0, 0, 0, 0, 0, 0, 0, 0, 0, 0, 0, 0, 0, 0, 0, 0, 0, 0, 0, 0, 0, 0, 0, 0, 0, 0, 0, 0, 0, 0, 0, 0, 0, 0, 0, 0, 0, 0, 0, 0, 0, 0, 0, 0, 0, 0, 0, 0, 0, 0, 0, 0, 0, 0, 0, 0, 0, 0, 0, 0, 0, 0, 0, 0, 0, 0, 0, 0, 0, 0, 0, 0, 0, 0, 0, 0, 0, 0, 0, 0, 0, 0, 0, 0, 0, 0, 0, 0, 0, 0, 0, 0, 0, 0, 0, 0, 0, 0, 0, 0, 0, 0, 0, 0, 0, 0, 0, 0, 0, 0, 0, 0, 0, 0, 0, 0, 0, 0, 0, 0, 0, 0, 0, 975, 0, 978, 981, 981, 984, 984, 987, 989, 989, 995, 1001, 1004, 1007, 1010, 1013, 1016, 1016, 1022, 1025, 1028, 1028, 1028, 1031, 1034, 1034, 1038, 1044, 1057, 1060, 1060, 1063, 1063, 1067, 1070, 1077, 1077, 1080, 1087, 1090, 1094, 1097, 1101, 1105, 1105, 1108, 1112, 1119, 1123, 1126, 1130, 1134, 1134, 1138, 1138, 1141, 1145, 1145, 1145, 1145, 1145, 1141, 1141, 1145, 1141, 1185, 1189, 1189, 1193, 1202, 1206, 1210, 1214, 1214, 1214, 1214, 1219, 1227, 1236, 1245, 1250, 1255, 1255, 1259, 1264, 1268, 1273, 1273, 1278, 1283, 1288, 1292, 1297, 1302, 1307, 1317, 1322, 1328, 1333, 1333, 1338, 1343, 1343, 1349, 1354, 1359, 1365, 1376, 1381, 1387, 1392, 1398, 1404, 1410, 1421, 1427, 1433, 1433, 1439, 1439, 1445, 1445, 1452, 1464, 1477, 1483, 1483, 1489, 1496, 1503, 1503, 1516, 1523, 1529, 1543, 1557, 1564, 1572, 1572, 1579, 1579, 1579, 1586, 1594, 1609, 1609, 1624, 1632, 1632, 1639, 1647, 1655, 1671, 1680, 1696, 1705, 1705, 1713, 1722, 1731, 1739, 1748, 1757, 1766, 1766, 1776, 1785, 1804, 1804, 1813, 1833, 1833, 1843, 1853, 1853, 1863, 1873, 1894, 1904, 1915, 1926, 1936, 1959, 1959, 1970, 1981, 1993, 2005, 2005, 2016, 2028, 2040, 2040, 2053, 2078, 2090, 2103, 2116, 2129, 2143, 2156, 2170, 2184, 2198, 2198, 2212, 2241, 2256, 2271, 2286, 2301, 2317, 2333, 2333, 2349, 2365, 2381, 2398, 2415, 2415, 2432, 2432, 2450, 2485, 2503, 2560, 2579, 2598, 2598, 2618, 2618, 2639, 2659, 2659, 2723, 2744, 2744, 2767, 2767, 2789, 2812, 2835, 2859, 2908, 2908, 2908, 2933, 2958, 2984, 3010, 3037, 3064, 3120, 3149, 3149, 3149, 3208, 3238, 3269, 3269, 3333, 3399, 3399, 3399, 3433, 3468, 3468, 3503, 3539, 3539, 3576, 3576, 3614, 3692, 3732, 3774, 3816, 3859, 3859, 3903, 3948, 3994, 4041, 4041, 4089, 4089, 4089, 4089, 4139, 4089, 4089, 4089, 4089, 4139, 4139, 4139, 4139, 4190, 4241, 0, 0, 0, 0, 0, 0, 0, 0, 0, 5832, 5832, 5832, 5832, 5832, 5734, 5734, 5832, 5832, 5832, 5832, 5832, 5832, 5832, 5832, 5832, 5832, 5734, 5734, 5832, 5734, 5734, 5640, 5640, 5640, 5640, 5640, 5548, 5640, 5548, 5640, 5640, 0, 0, 0, 0, 0, 0, 0, 0
0, 0, 0, 0, 0, 0, 536, 537, 537, 538, 538, 539, 539, 539, 540, 540, 540, 542, 542, 0, 0, 0, 0, 0, 0, 0, 550, 549, 552, 0, 0, 0, 0, 0, 0, 0, 0, 566, 567, 567, 566, 566, 567, 567, 567, 568, 569, 569, 574, 575, 575, 575, 575, 576, 577, 579, 583, 584, 584, 584, 585, 586, 586, 586, 588, 590, 591, 592, 594, 595, 595, 596, 596, 597, 599, 600, 600, 600, 601, 601, 604, 607, 608, 608, 609, 609, 610, 612, 615, 616, 616, 616, 616, 618, 618, 619, 620, 621, 621, 623, 623, 625, 628, 630, 631, 631, 632, 632, 634, 635, 636, 637, 640, 641, 641, 642, 643, 647, 648, 649, 650, 650, 652, 653, 653, 655, 655, 657, 659, 661, 661, 662, 662, 664, 666, 668, 670, 672, 672, 674, 675, 675, 676, 679, 679, 680, 682, 683, 684, 686, 686, 686, 687, 688, 0, 0, 697, 0, 0, 0, 0, 0, 0, 0, 0, 0, 0, 0, 0, 0, 0, 0, 0, 0, 0, 0, 0, 0, 0, 0, 0, 0, 0, 0, 0, 0, 0, 0, 0, 0, 0, 0, 0, 0, 0, 0, 0, 0, 0, 0, 0, 0, 0, 0, 0, 0, 0, 0, 0, 0, 0, 0, 0, 0, 0, 0, 0, 0, 0, 0, 0, 0, 0, 0, 0, 0, 0, 0, 0, 0, 0, 0, 0, 0, 0, 0, 0, 0, 0, 0, 0, 0, 0, 0, 0, 0, 0, 0, 0, 0, 0, 0, 0, 0, 0, 0, 0, 0, 0, 0, 0, 0, 0, 0, 0, 0, 0, 0, 0, 0, 0, 0, 0, 0, 0, 0, 0, 0, 0, 0, 0, 0, 0, 0, 0, 0, 0, 0, 0, 0, 0, 0, 0, 0, 981, 981, 981, 984, 984, 987, 989, 989, 992, 1001, 1004, 1007, 1010, 1016, 1016, 1019, 1022, 1025, 1028, 1028, 1028, 1031, 1034, 1034, 1038, 1047, 1054, 1057, 1060, 1063, 1063, 1067, 1070, 1077, 1077, 1084, 1084, 1090, 1094, 1097, 1101, 1105, 1105, 1108, 1112, 1119, 1123, 1126, 1130, 1134, 1134, 1138, 1138, 1141, 1138, 1141, 1145, 1145, 1145, 1141, 1141, 1145, 1141, 1185, 1189, 1189, 1193, 1202, 1206, 1210, 1214, 1214, 1214, 1219, 1223, 1227, 1236, 1245, 1250, 1250, 1255, 1259, 1264, 1268, 1273, 1278, 1283, 1283, 1288, 1292, 1297, 1302, 1307, 1317, 1322, 1328, 1333, 1338, 1343, 1343, 1349, 1349, 1354, 1359, 1365, 1376, 1387, 1387, 1392, 1398, 1404, 1410, 1421, 1427, 1433, 1439, 1439, 1439, 1445, 1445, 1452, 1470, 1483, 1483, 1489, 1489, 1496, 1503, 1503, 1516, 1523, 1529, 1543, 1557, 1564, 1572, 1572, 1579, 1579, 1579, 1586, 1594, 1609, 1609, 1616, 1632, 1632, 1639, 1647, 1663, 1671, 1688, 1696, 1705, 1705, 1713, 1722, 1739, 1739, 1739, 1757, 1766, 1776, 1776, 1785, 1804, 1804, 1813, 1823, 1833, 1843, 1853, 1863, 1873, 1883, 1894, 1904, 1915, 1926, 1936, 1959, 1959, 1970, 1981, 1993, 2005, 2016, 2016, 2028, 2040, 2053, 2065, 2078, 2090, 2103, 2116, 2129, 2143, 2156, 2170, 2184, 2198, 2212, 2226, 2241, 2256, 2271, 2271, 2301, 2317, 2317, 2333, 2349, 2365, 2381, 2398, 2415, 2432, 2432, 2432, 2467, 2485, 2503, 2541, 2579, 2598, 2598, 2618, 2618, 2639, 2659, 2659, 2701, 2744, 2744, 2767, 2767, 2789, 2812, 2835, 2859, 2908, 2908, 2908, 2933, 2958, 2984, 3010, 3037, 3092, 3120, 3149, 3149, 3178, 3208, 3238, 3238, 3269, 3333, 3365, 3365, 3399, 3433, 3468, 3468, 3503, 3503, 3539, 3539, 3653, 3653, 3692, 3732, 3732, 3816, 3859, 3859, 3903, 3948, 3994, 4041, 4041, 4089, 4089, 4089, 4089, 4139, 4089, 4089, 4089, 4089, 4139, 4139, 4139, 4139, 4190, 4241, 0, 0, 0, 0, 0, 0, 0, 0, 0, 0, 5832, 5832, 5832, 5832, 5832, 5832, 5832, 5832, 5832, 5832, 5832, 5832, 5832, 5933, 5933, 5832, 5832, 5832, 5933, 5832, 5734, 5640, 5640, 5640, 5640, 5640, 5640, 5640, 5640, 5640, 5640, 0, 0, 0, 0, 0, 0, 0, 0
0, 0, 0, 0, 0, 0, 0, 536, 538, 538, 538, 539, 539, 540, 540, 540, 541, 543, 543, 544, 546, 0, 0, 0, 0, 0, 549, 549, 550, 0, 0, 0, 0, 0, 0, 0, 0, 566, 567, 566, 566, 566, 567, 567, 567, 568, 568, 569, 574, 575, 575, 575, 575, 576, 576, 578, 582, 583, 584, 586, 587, 587, 587, 587, 587, 588, 588, 595, 595, 595, 595, 596, 596, 597, 598, 599, 599, 601, 601, 601, 604, 606, 607, 608, 609, 609, 609, 611, 614, 615, 616, 616, 616, 618, 618, 619, 620, 621, 621, 622, 624, 625, 628, 629, 631, 631, 632, 632, 634, 635, 636, 637, 640, 641, 641, 642, 644, 647, 648, 649, 650, 652, 652, 653, 654, 655, 655, 658, 661, 661, 663, 664, 664, 666, 667, 668, 670, 672, 672, 674, 675, 675, 678, 679, 680, 680, 682, 682, 684, 684, 686, 686, 687, 0, 0, 0, 0, 0, 0, 0, 0, 0, 0, 0, 0, 0, 0, 0, 0, 0, 0, 0, 0, 0, 0, 0, 0, 0, 0, 0, 0, 0, 0, 0, 0, 0, 0, 0, 0, 0, 0, 0, 0, 0, 0, 0, 0, 0, 0, 0, 0, 0, 0, 0, 0, 0, 0, 0, 0, 0, 0, 0, 0, 0, 0, 0, 0, 0, 0, 0, 0, 0, 0, 0, 0, 0, 0, 0, 0, 0, 0, 0, 0, 0, 0, 0, 0, 0, 0, 0, 0, 0, 0, 0, 0, 0, 0, 0, 0, 0, 0, 0, 0, 0, 0, 0, 0, 0, 0, 0, 0, 0, 0, 0, 0, 0, 0, 0, 0, 0, 0, 0, 0, 0, 0, 0, 0, 0, 0, 0, 0, 0, 0, 0, 0, 0, 0, 0, 0, 0, 0, 0, 0, 0, 0, 984, 984, 984, 984, 987, 987, 989, 992, 1001, 1004, 1007, 1010, 1016, 1016, 1019, 1022, 1025, 1028, 1028, 1028, 1031, 1034, 1038, 1041, 1047, 1054, 1057, 1060, 1063, 1063, 1067, 1070, 1073, 1077, 1080, 1084, 1090, 1094, 1097, 1101, 1105, 1105, 1108, 1112, 1119, 1123, 1126, 1130, 1134, 1134, 1138, 1138, 1141, 1138, 1141, 1145, 1145, 1145, 1145, 1145, 1145, 1145, 1185, 1193, 1193, 1202, 1206, 1206, 1210, 1214, 1214, 1219, 1219, 1223, 1232, 1236, 1241, 1250, 1255, 1255, 1259, 1268, 1268, 1273, 1278, 1283, 1288, 1288, 1292, 1297, 1302, 1307, 1317, 1317, 1328, 1333, 1338, 1343, 1343, 1349, 1349, 1354, 1359, 1365, 1376, 1387, 1392, 1392, 1398, 1410, 1410, 1421, 1427, 1433, 1439, 1439, 1439, 1445, 1445, 1452, 1470, 1483, 1489, 1489, 1496, 1496, 1503, 1503, 1516, 1523, 1529, 1543, 1550, 1564, 1572, 1572, 1579, 1579, 1579, 1579, 1594, 1609, 1609, 1616, 1632, 1632, 1639, 1663, 1663, 1671, 1688, 1696, 1696, 1705, 1705, 1722, 1739, 1739, 1748, 1757, 1766, 1776, 1785, 1785, 1804, 1813, 1813, 1833, 1833, 1843, 1853, 1853, 1873, 1883, 1894, 1904, 1915, 1926, 1936, 1959, 1959, 1970, 1981, 1993, 2016, 2016, 2028, 2028, 2040, 2053, 2065, 2078, 2090, 2103, 2116, 2129, 2143, 2156, 2170, 2184, 2198, 2212, 2226, 2241, 2256, 2271, 2286, 2301, 2317, 2317, 2333, 2349, 2365, 2381, 2398, 2415, 2432, 2432, 2432, 2467, 2485, 2503, 2522, 2541, 2598, 2598, 2618, 2618, 2639, 2659, 2659, 2680, 2723, 2744, 2767, 2767, 2789, 2812, 2835, 2883, 2908, 2908, 2908, 2933, 2958, 2984, 3010, 3037, 3064, 3092, 3120, 3149, 3178, 3208, 3238, 3238, 3269, 3300, 3365, 3365, 3365, 3433, 3468, 3503, 3503, 3539, 3576, 3576, 3653, 3653, 3692, 3732, 3774, 3816, 3859, 3859, 3903, 3948, 3994, 4041, 4041, 4041, 4041, 4041, 4041, 4089, 4041, 4089, 4041, 4041, 4089, 4139, 4139, 4139, 4190, 4190, 0, 0, 0, 0, 0, 0, 0, 0, 0, 0, 5832, 5734, 5832, 5832, 5734, 5734, 5734, 5832, 5832, 5832, 5832, 5832, 5832, 5933, 5933, 5832, 5832, 5734, 5832, 5734, 5734, 5640, 5640, 5640, 5640, 5640, 5640, 5640, 5640, 5640, 5640, 0, 0, 0, 0, 0, 0, 0, 0
0, 0, 0, 0, 0, 0, 0, 0, 538, 538, 538, 538, 539, 540, 540, 540, 542, 544, 544, 545, 546, 546, 0, 547, 547, 547, 549, 0, 0, 0, 0, 0, 0, 0, 0, 0, 0, 0, 567, 567, 566, 566, 567, 567, 567, 568, 568, 568, 573, 574, 575, 574, 575, 575, 576, 579, 583, 584, 584, 586, 587, 587, 587, 587, 587, 588, 588, 591, 592, 594, 595, 595, 596, 597, 598, 599, 600, 601, 602, 602, 606, 607, 608, 608, 609, 609, 609, 610, 612, 615, 616, 618, 618, 618, 618, 618, 619, 621, 622, 623, 625, 627, 629, 630, 631, 631, 631, 632, 634, 635, 636, 637, 640, 640, 641, 642, 644, 647, 648, 649, 650, 652, 652, 653, 654, 655, 657, 658, 661, 661, 662, 662, 664, 666, 667, 668, 670, 672, 672, 674, 675, 676, 678, 679, 680, 680, 682, 682, 683, 684, 684, 686, 0, 0, 0, 0, 0, 0, 0, 0, 0, 0, 0, 0, 0, 0, 0, 0, 0, 0, 0, 0, 0, 0, 0, 0, 0, 0, 0, 0, 0, 0, 0, 0, 0, 0, 0, 0, 0, 0, 0, 0, 0, 0, 0, 0, 0, 0, 0, 0, 0, 0, 0, 0, 0, 0, 0, 0, 0, 0, 0, 0, 0, 0, 0, 0, 0, 0, 0, 0, 0, 0, 0, 0, 0, 0, 0, 0, 0, 0, 0, 0, 0, 0, 0, 0, 0, 0, 0, 0, 0, 0, 0, 0, 0, 0, 0, 0, 0, 0, 0, 0, 0, 0, 0, 0, 0, 0, 0, 0, 0, 0, 0, 0, 0, 0, 0, 0, 0, 0, 0, 0, 0, 0, 0, 0, 0, 0, 0, 0, 0, 0, 0, 0, 0, 0, 0, 0, 0, 0, 0, 0, 0, 0, 0, 0, 0, 984, 984, 987, 989, 989, 0, 1001, 1004, 1007, 1007, 1013, 1016, 1022, 1022, 1028, 1028, 1028, 1031, 1034, 1038, 1041, 1044, 1050, 1050, 1054, 1060, 1063, 1067, 1070, 1070, 1073, 1073, 1077, 1084, 1090, 1094, 1097, 1101, 1105, 1105, 1108, 1112, 1115, 1123, 1126, 1130, 1134, 1138, 1138, 1141, 1141, 1138, 1141, 1145, 1145, 1145, 1145, 1149, 1149, 1153, 1189, 1193, 1193, 1202, 1206, 1206, 1206, 1210, 1214, 1219, 1219, 1227, 1232, 1236, 1241, 1245, 1250, 1250, 1259, 1268, 1268, 1273, 1278, 1283, 1283, 1288, 1292, 1297, 1307, 1312, 1317, 1322, 1328, 1328, 1338, 1343, 1343, 1349, 1354, 1354, 1359, 1370, 1376, 1387, 1392, 1398, 1404, 1404, 1410, 1415, 1427, 1433, 1439, 1439, 1439, 1445, 1445, 1458, 1464, 1483, 1489, 1489, 1496, 1496, 1503, 1503, 1516, 1523, 1529, 1543, 1550, 1564, 1572, 1572, 1572, 1579, 1579, 1579, 1601, 1609, 1609, 1624, 1632, 1632, 1639, 1655, 1663, 1671, 1680, 1696, 1696, 1705, 1705, 1722, 1739, 1748, 1748, 1766, 1766, 1776, 1785, 1794, 1804, 1813, 1813, 1833, 1833, 1843, 1853, 1863, 1873, 1883, 1894, 1904, 1915, 1926, 1936, 1959, 1959, 1970, 1993, 2005, 2016, 2016, 2028, 2040, 2040, 2053, 2065, 2078, 2090, 2103, 2116, 2129, 2143, 2156, 2170, 2184, 2198, 2212, 2226, 2241, 2271, 2271, 2286, 2301, 2317, 2317, 2333, 2349, 2365, 2381, 2415, 2432, 2432, 2450, 2450, 2485, 2485, 2503, 2522, 2541, 2560, 2579, 2618, 2618, 2639, 2659, 2659, 2680, 2723, 2744, 2744, 2767, 2812, 2812, 2835, 2859, 2883, 2908, 2908, 2933, 2933, 2958, 2984, 3037, 3064, 3092, 3149, 3149, 3208, 3208, 3238, 3238, 3269, 3300, 3333, 3365, 3399, 3433, 3503, 3503, 3503, 3539, 3576, 3614, 3614, 3653, 3692, 3732, 3774, 3859, 3859, 3903, 3948, 3948, 3994, 4041, 4041, 4041, 4089, 4089, 4089, 4139, 4089, 4089, 4041, 4089, 4089, 4139, 4190, 4190, 4241, 4241, 0, 0, 0, 0, 0, 0, 0, 0, 0, 5734, 5734, 5734, 5734, 5734, 5734, 5734, 5734, 5832, 5734, 5832, 5832, 5832, 5832, 5832, 5832, 5832, 5832, 5734, 5734, 5734, 5734, 5640, 5640, 5640, 5640, 5640, 5640, 5640, 5640, 5640, 5640, 0, 0, 0, 0, 0, 0, 0, 0
0, 0, 0, 0, 0, 0, 0, 0, 538, 538, 538, 538, 539, 540, 540, 540, 543, 544, 544, 544, 545, 545, 547, 546, 547, 549, 549, 0, 0, 0, 0, 0, 0, 0, 0, 0, 0, 0, 567, 566, 566, 567, 567, 567, 567, 568, 568, 569, 573, 573, 574, 574, 575, 576, 578, 579, 583, 584, 584, 585, 586, 586, 586, 586, 587, 588, 588, 591, 591, 594, 594, 595, 596, 598, 598, 599, 600, 601, 603, 603, 606, 607, 607, 608, 609, 609, 609, 611, 612, 615, 616, 616, 618, 618, 619, 619, 619, 621, 622, 623, 627, 628, 629, 630, 630, 630, 631, 632, 634, 635, 636, 637, 640, 641, 642, 643, 644, 647, 648, 650, 650, 652, 652, 653, 654, 655, 657, 659, 661, 662, 662, 664, 664, 666, 666, 668, 670, 672, 672, 674, 675, 676, 676, 680, 680, 680, 682, 682, 683, 684, 0, 0, 0, 0, 0, 0, 0, 0, 0, 0, 0, 0, 0, 0, 0, 0, 0, 0, 0, 0, 0, 0, 0, 0, 0, 0, 0, 0, 0, 0, 0, 0, 0, 0, 0, 0, 0, 0, 0, 0, 0, 0, 0, 0, 0, 0, 0, 0, 0, 0, 0, 0, 0, 0, 0, 0, 0, 0, 0, 0, 0, 0, 0, 0, 0, 0, 0, 0, 0, 0, 0, 0, 0, 0, 0, 0, 0, 0, 0, 0, 0, 0, 0, 0, 0, 0, 0, 0, 0, 0, 0, 0, 0, 0, 0, 0, 0, 0, 0, 0, 0, 0, 0, 0, 0, 0, 0, 0, 0, 0, 0, 0, 0, 0, 0, 0, 0, 0, 0, 0, 0, 0, 0, 0, 0, 0, 0, 0, 0, 0, 0, 0, 0, 0, 0, 0, 0, 0, 0, 0, 0, 0, 0, 0, 0, 0, 0, 0, 0, 987, 0, 0, 0, 0, 0, 1004, 1010, 1010, 1016, 1022, 1022, 1025, 1028, 1028, 1031, 1034, 1038, 1038, 1041, 1047, 1054, 1057, 1060, 1063, 1067, 1070, 1070, 1077, 1077, 1080, 1084, 1090, 1094, 1097, 1101, 1105, 1105, 1105, 1108, 1115, 1119, 1123, 1126, 1134, 1138, 1141, 1145, 1145, 1145, 1145, 1145, 1145, 1145, 1149, 1149, 1153, 1153, 1185, 1193, 1193, 1202, 1206, 1206, 1206, 1210, 1214, 1219, 1219, 1227, 1232, 1236, 1241, 1245, 1250, 1255, 1259, 1268, 1268, 1273, 1278, 1288, 1288, 1292, 1292, 1307, 1307, 1312, 1312, 1317, 1322, 1333, 1343, 1349, 1349, 1349, 1354, 1354, 1365, 1370, 1376, 1381, 1392, 1398, 1398, 1404, 1404, 1415, 1421, 1433, 1439, 1439, 1445, 1445, 1452, 1458, 1470, 1483, 1489, 1489, 1496, 1503, 1509, 1509, 1523, 1523, 1536, 1543, 1550, 1564, 1564, 1572, 1572, 1579, 1579, 1579, 1601, 1609, 1609, 1624, 1639, 1639, 1639, 1655, 1663, 1671, 1680, 1688, 1696, 1696, 1705, 1713, 1731, 1739, 1748, 1766, 1776, 1776, 1785, 1794, 1813, 1813, 1823, 1833, 1833, 1843, 1853, 1863, 1883, 1883, 1894, 1904, 1926, 1926, 1936, 1947, 1959, 1970, 1993, 2005, 2016, 2016, 2028, 2040, 2040, 2053, 2065, 2078, 2090, 2116, 2116, 2129, 2143, 2156, 2170, 2184, 2212, 2212, 2226, 2241, 2256, 2286, 2301, 2317, 2333, 2333, 2349, 2365, 2381, 2398, 2415, 2432, 2432, 2450, 2467, 2485, 2503, 2522, 2522, 2541, 2560, 2579, 2598, 2618, 2639, 2659, 2680, 2701, 2723, 2744, 2744, 2767, 2812, 2812, 2835, 2859, 2883, 2908, 2908, 2933, 2958, 2958, 3010, 3037, 3064, 3092, 3149, 3178, 3208, 3238, 3238, 3238, 3269, 3269, 3333, 3365, 3399, 3433, 3468, 3503, 3503, 3539, 3539, 3576, 3614, 3614, 3692, 3732, 3774, 3859, 3903, 3948, 3948, 3994, 4041, 4041, 4041, 4089, 4089, 4089, 4089, 4089, 4041, 4041, 4041, 4041, 4089, 4139, 4190, 4190, 4241, 4241, 0, 0, 0, 0, 0, 0, 0, 0, 0, 0, 5734, 5734, 5734, 5832, 5734, 5734, 5734, 5832, 5734, 5832, 5832, 5832, 5832, 5832, 5832, 5832, 5832, 5734, 5832, 5734, 5734, 5640, 5640, 5640, 5640, 5548, 5640, 5640, 5640, 5640, 5640, 0, 0, 0, 0, 0, 0, 0, 0
0, 0, 0, 0, 0, 0, 0, 0, 538, 538, 538, 538, 539, 540, 540, 540, 543, 544, 544, 544, 545, 545, 546, 546, 546, 549, 550, 0, 0, 0, 0, 0, 0, 0, 0, 0, 0, 0, 566, 566, 566, 566, 567, 567, 567, 568, 568, 570, 572, 573, 573, 573, 574, 574, 576, 579, 582, 583, 584, 584, 585, 586, 586, 586, 587, 587, 588, 590, 591, 593, 594, 595, 596, 598, 599, 599, 600, 601, 602, 603, 604, 606, 607, 608, 609, 609, 609, 610, 611, 615, 616, 618, 618, 619, 619, 619, 620, 621, 621, 622, 627, 628, 630, 630, 631, 631, 632, 634, 635, 636, 637, 638, 640, 641, 642, 643, 644, 647, 648, 650, 650, 652, 652, 653, 654, 655, 657, 659, 661, 662, 663, 663, 664, 666, 666, 667, 670, 671, 671, 672, 674, 675, 676, 680, 680, 680, 680, 682, 0, 0, 0, 0, 0, 0, 0, 0, 0, 0, 0, 0, 0, 0, 0, 0, 0, 0, 0, 0, 0, 0, 0, 0, 0, 0, 0, 0, 0, 0, 0, 0, 0, 0, 0, 0, 0, 0, 0, 0, 0, 0, 0, 0, 0, 0, 0, 0, 0, 0, 0, 0, 0, 0, 0, 0, 0, 0, 0, 0, 0, 0, 0, 0, 0, 0, 0, 0, 0, 0, 0, 0, 0, 0, 0, 0, 0, 0, 0, 0, 0, 0, 0, 0, 0, 0, 0, 0, 0, 0, 0, 0, 0, 0, 0, 0, 0, 0, 0, 0, 0, 0, 0, 0, 0, 0, 0, 0, 0, 0, 0, 0, 0, 0, 0, 0, 0, 0, 0, 0, 0, 0, 0, 0, 0, 0, 0, 0, 0, 0, 0, 0, 0, 0, 0, 0, 0, 0, 0, 0, 0, 0, 0, 0, 0, 0, 0, 0, 0, 0, 0, 0, 0, 0, 0, 0, 0, 0, 1007, 1007, 1016, 1022, 1022, 1025, 1025, 1028, 1031, 1034, 1034, 1038, 1041, 1047, 1050, 1057, 1060, 1063, 1067, 1067, 1070, 1073, 1077, 1080, 1087, 1090, 1094, 1097, 1097, 1105, 1105, 1108, 1108, 1115, 1119, 1123, 1126, 1134, 1138, 1141, 1145, 1145, 1145, 1145, 1149, 1149, 1149, 1149, 1149, 1153, 1153, 1185, 1193, 1193, 1202, 1206, 1206, 1210, 1214, 1214, 1219, 1219, 1223, 1232, 1236, 1241, 1245, 1250, 1255, 1259, 1268, 1273, 1278, 1283, 1288, 1288, 1292, 1297, 1302, 1307, 1312, 1312, 1317, 1322, 1333, 1343, 1349, 1349, 1349, 1354, 1359, 1365, 1370, 1376, 1387, 1392, 1398, 1398, 1398, 1404, 1415, 1421, 1427, 1439, 1439, 1445, 1445, 1452, 1458, 1470, 1483, 1489, 1496, 1496, 1503, 1509, 1516, 1523, 1529, 1536, 1543, 1550, 1557, 1564, 1572, 1572, 1579, 1586, 1586, 1594, 1601, 1609, 1624, 1639, 1647, 1647, 1655, 1663, 1671, 1680, 1688, 1696, 1696, 1705, 1722, 1731, 1739, 1748, 1766, 1776, 1776, 1785, 1794, 1804, 1813, 1823, 1833, 1843, 1853, 1863, 1863, 1883, 1883, 1894, 1894, 1926, 1936, 1936, 1947, 1947, 1970, 1981, 1993, 2016, 2028, 2028, 2040, 2040, 2053, 2065, 2078, 2103, 2116, 2116, 2129, 2143, 2156, 2170, 2184, 2212, 2226, 2226, 2241, 2256, 2286, 2301, 2317, 2333, 2349, 2349, 2365, 2398, 2415, 2432, 2432, 2432, 2450, 2467, 2485, 2503, 2522, 2541, 2560, 2560, 2579, 2598, 2618, 2639, 2659, 2680, 2701, 2723, 2744, 2744, 2767, 2812, 2835, 2835, 2883, 2908, 2908, 2933, 2933, 2958, 2958, 2984, 3037, 3064, 3092, 3149, 3178, 3208, 3238, 3238, 3238, 3269, 3269, 3333, 3365, 3433, 3468, 3503, 3503, 3503, 3539, 3539, 3576, 3614, 3614, 3692, 3732, 3732, 3816, 3859, 3948, 3948, 3994, 4041, 4041, 4041, 4041, 4089, 4089, 4089, 4089, 4041, 4041, 4041, 4041, 4089, 4139, 4190, 4190, 4241, 4241, 0, 0, 0, 0, 0, 0, 0, 0, 0, 0, 5734, 5734, 5734, 5832, 5734, 5640, 5734, 5734, 5734, 5734, 5734, 5734, 5734, 5832, 5832, 5832, 5832, 5734, 5734, 5734, 5734, 5640, 5640, 5640, 5640, 5640, 5640, 5640, 5640, 5640, 5640, 0, 0, 0, 0, 0, 0, 0, 0
0, 0, 0, 0, 0, 0, 0, 0, 0, 539, 537, 538, 539, 540, 540, 540, 0, 0, 544, 544, 545, 546, 546, 546, 546, 0, 0, 0, 0, 0, 0, 0, 0, 0, 0, 0, 0, 0, 566, 566, 566, 566, 567, 567, 568, 568, 569, 571, 572, 572, 573, 574, 575, 574, 576, 579, 581, 583, 584, 585, 586, 586, 586, 586, 587, 588, 589, 590, 592, 593, 594, 595, 596, 598, 599, 600, 601, 602, 602, 603, 604, 606, 607, 608, 609, 609, 610, 611, 613, 615, 616, 618, 618, 619, 619, 620, 620, 621, 622, 622, 627, 628, 630, 630, 631, 631, 632, 634, 635, 636, 638, 638, 641, 641, 642, 643, 644, 647, 648, 650, 650, 652, 652, 653, 654, 655, 655, 659, 661, 662, 663, 664, 664, 666, 666, 667, 670, 671, 671, 671, 672, 675, 676, 679, 680, 680, 680, 0, 0, 0, 0, 0, 0, 0, 0, 0, 0, 0, 0, 0, 0, 0, 0, 0, 0, 0, 0, 0, 0, 0, 0, 0, 0, 0, 0, 0, 0, 0, 0, 0, 0, 0, 0, 0, 0, 0, 0, 0, 0, 0, 0, 0, 0, 0, 0, 0, 0, 0, 0, 0, 0, 0, 0, 0, 0, 0, 0, 0, 0, 0, 0, 0, 0, 0, 0, 0, 0, 0, 0, 0, 0, 0, 0, 0, 0, 0, 0, 0, 0, 0, 0, 0, 0, 0, 0, 0, 0, 0, 0, 0, 0, 0, 0, 0, 0, 0, 0, 0, 0, 0, 0, 0, 0, 0, 0, 0, 0, 0, 0, 0, 0, 0, 0, 0, 0, 0, 0, 0, 0, 0, 0, 0, 0, 0, 0, 0, 0, 0, 0, 0, 0, 0, 0, 0, 0, 0, 0, 0, 0, 0, 0, 0, 0, 0, 0, 0, 0, 0, 0, 0, 0, 0, 0, 0, 0, 0, 0, 0, 1016, 1022, 1022, 1025, 1028, 1028, 1031, 1034, 1034, 1038, 1041, 1044, 1050, 1054, 1060, 1063, 1067, 1070, 1073, 1077, 1080, 1080, 1087, 1090, 1097, 1097, 1101, 1105, 1105, 1108, 1112, 1119, 1123, 1123, 1126, 1134, 1138, 1141, 1141, 1145, 1145, 1145, 1149, 1149, 1149, 1149, 1153, 1153, 1157, 1185, 1189, 1193, 1197, 1202, 1206, 1210, 1214, 1214, 1219, 1219, 1223, 1227, 1232, 1236, 1245, 1250, 1255, 1264, 1268, 1273, 1278, 1283, 1288, 1288, 1292, 1297, 1302, 1307, 1312, 1312, 1317, 1322, 1328, 1338, 1349, 1349, 1349, 1354, 1359, 1370, 1376, 1376, 1387, 1392, 1392, 1398, 1398, 1404, 1415, 1421, 1427, 1439, 1439, 1445, 1445, 1452, 1458, 1470, 1483, 1489, 1496, 1496, 1503, 1509, 1516, 1523, 1529, 1536, 1543, 1550, 1557, 1564, 1572, 1572, 1579, 1579, 1586, 1586, 1601, 1609, 1632, 1647, 1655, 1655, 1663, 1663, 1671, 1680, 1688, 1696, 1705, 1713, 1722, 1731, 1739, 1748, 1766, 1776, 1776, 1785, 1794, 1804, 1813, 1823, 1833, 1843, 1853, 1863, 1863, 1883, 1883, 1894, 1904, 1926, 1936, 1936, 1947, 1947, 1970, 1981, 1993, 2016, 2016, 2040, 2040, 2053, 2065, 2078, 2078, 2090, 2116, 2116, 2129, 2143, 2156, 2184, 2198, 2212, 2226, 2241, 2256, 2256, 2271, 2301, 2317, 2317, 2333, 2349, 2365, 2398, 2415, 2432, 2432, 2450, 2450, 2467, 2485, 2503, 2522, 2541, 2560, 2560, 2579, 2598, 2618, 2639, 2659, 2680, 2701, 2723, 2744, 2744, 2767, 2812, 2835, 2859, 2883, 2908, 2908, 2933, 2958, 2958, 2984, 3010, 3037, 3064, 3092, 3178, 3208, 3208, 3238, 3238, 3238, 3269, 3269, 3333, 3365, 3399, 3468, 3468, 3503, 3503, 3539, 3576, 3576, 3614, 3653, 3692, 3732, 3732, 3774, 3816, 3903, 3948, 3994, 3994, 4041, 4041, 4041, 4089, 4089, 4089, 4089, 4041, 4041, 4041, 4041, 4089, 4139, 4190, 4190, 4241, 4241, 4241, 0, 0, 0, 0, 0, 0, 0, 5640, 5734, 5734, 5734, 5640, 5832, 5734, 5734, 5734, 5832, 5734, 5832, 5734, 5734, 5734, 5832, 5832, 5832, 5734, 5734, 5734, 5640, 5640, 5640, 5640, 5640, 5640, 5640, 5640, 5640, 5640, 5640, 5640, 0, 0, 0, 0, 0, 0, 0, 0
