0, 0, 0, 4041, 4041, 3994, 3994, 3994, 3994, 3994, 3994, 3994, 3994, 3994, 3994, 3994, 3994, 3994, 3994, 3994, 3994, 3994, 3948, 3948, 3948, 3948, 3994, 3994, 3994, 3994, 3994, 3948, 3948, 3948, 3948, 3948, 3948, 3948, 3994, 3994, 3994, 3994, 3994, 4041, 4041, 4041, 4041, 4041, 4041, 3994, 3994, 3994, 3948, 3948, 3948, 3994, 3994, 3994, 4041, 4041, 4041, 4089, 4089, 4089, 4089, 4089, 4089, 4089, 4139, 4089, 4089, 4089, 4089, 4041, 4041, 4041, 4041, 4041, 4041, 4041, 4089, 4089, 4089, 4139, 4139, 4139, 4190, 4190, 4190, 4190, 4190, 4190, 4190, 4139, 4139, 4139, 4089, 4041, 4041, 4089, 4089, 4139, 4139, 4139, 4190, 4241, 4190, 4139, 4139, 4139, 4139, 4190, 4190, 4139, 4139, 4190, 4190, 4190, 4190, 4190, 4190, 4190, 4190, 4190, 4190, 4190, 4139, 4139, 4139, 4139, 4139, 4139, 4139, 4139, 4190, 4241, 4241, 4241, 4241, 4241, 4241, 4241, 4295, 4349, 4405, 4405, 4405, 4405, 4405, 4463, 4405, 4405, 4463, 4463, 4582, 4582, 4522, 4522, 4522, 4522, 4522, 4522, 4522, 4522, 4522, 4522, 4522, 4522, 4463, 4463, 4522, 4522, 4522, 4522, 4522, 4522, 4522, 4522, 4522, 4522, 4522, 4522, 4522, 4522, 4522, 4522, 4522, 4582, 4582, 4582, 4582, 4582, 4582, 4582, 4582, 4582, 4582, 4582, 4582, 4582, 4582, 4582, 4582, 4582, 4582, 4582, 4582, 4582, 4582, 4522, 4522, 4522, 4522, 4522, 4522, 4522, 4522, 4522, 4522, 4522, 4522, 4522, 4522, 4522, 4522, 4582, 4582, 4582, 4582, 4582, 4582, 4582, 4582, 4582, 4522, 4522, 4522, 4522, 4522, 4522, 4522, 4582, 4582, 4582, 4582, 4582, 4645, 4645, 4645, 4645, 4645, 4645, 4645, 4645, 4645, 4645, 4645, 4645, 4645, 4582, 4582, 4582, 4582, 4582, 4582, 4582, 4582, 4645, 4645, 4645, 4645, 4645, 4645, 4645, 4582, 4582, 4582, 4582, 4645, 4774, 4774, 4842, 4842, 4842, 4842, 4774, 4774, 4774, 4842, 4842, 4842, 4842, 4842, 4842, 4842, 4842, 4774, 4774, 4774, 4708, 4708, 4708, 4708, 4774, 4774, 4774, 4774, 4842, 4842, 4842, 4842, 4842, 4842, 4842, 4842, 4842, 4842, 4842, 4842, 4842, 4842, 4842, 4842, 4842, 4842, 4842, 4842, 4774, 4774, 4774, 4774, 4774, 4708, 4708, 4774, 4774, 4774, 4774, 4774, 4842, 4774, 4774, 4774, 4774, 4774, 4774, 4842, 4774, 4774, 4708, 4708, 4774, 4774, 4774, 4774, 4774, 4774, 4842, 4774, 4774, 4774, 4708, 4708, 4708, 4708, 4708, 4774, 4774, 4842, 4842, 4842, 4842, 4842, 4842, 4842, 4842, 4774, 4774, 4842, 4911, 4983, 5056, 5210, 5210, 5291, 5291, 5291, 5291, 5291, 5291, 5291, 5291, 5291, 5291, 5291, 5291, 5291, 5291, 5291, 5291, 5291, 5210, 5210, 5132, 5132, 5132, 5132, 5132, 5132, 5132, 5132, 5132, 5132, 5132, 5132, 5132, 5132, 5132, 5132, 5132, 5210, 5210, 5132, 5132, 5132, 5132, 5132, 5132, 5132, 5132, 5132, 5132, 5056, 5056, 5056, 5056, 5056, 5056, 5056, 5056, 5056, 5056, 5056, 4983, 4983, 4983, 5056, 5056, 5056, 5056, 5056, 5056, 5056, 5056, 5056, 5056, 5056, 5056, 5056, 5056, 5056, 5056, 5056, 5056, 4983, 4983, 4983, 4983, 5056, 5056, 5056, 5056, 4983, 4983, 4983, 4911, 4842, 4842, 4774, 4774, 4774, 4774, 4774, 4774, 4708, 4645, 4645, 4645, 4645, 4582, 4522, 4463, 4463, 4405, 4349, 4295, 4295, 4295, 4295, 4295, 4241, 4241, 4295, 4295, 4295, 4295, 4295, 4295, 4295, 4241, 4241, 4241, 4241, 4241, 4190, 4190, 4190, 4190, 4190, 4190, 4139, 4139, 4190, 4190, 4190, 4190, 4190, 4190, 4190, 4190, 4190, 4190, 4139, 4139, 4139, 4139
0, 0, 0, 3994, 3994, 3948, 3948, 3948, 3948, 3994, 3994, 3948, 3948, 3994, 3994, 3994, 3994, 3948, 3948, 3994, 3948, 3948, 3948, 3948, 3948, 3948, 3948, 3948, 3948, 3948, 3948, 3948, 3948, 3948, 3948, 3948, 3948, 3948, 3948, 3948, 3994, 3994, 3994, 3994, 3994, 3994, 3994, 3994, 3994, 3994, 3994, 3994, 3948, 3948, 3948, 3948, 3948, 3948, 3994, 4041, 4041, 4041, 4041, 4041, 4041, 4041, 4041, 4041, 4089, 4089, 4089, 4041, 4041, 4041, 4041, 4041, 4041, 4041, 4041, 4041, 4041, 4041, 4041, 4089, 4089, 4089, 4139, 4139, 4139, 4089, 4089, 4139, 4139, 4089, 4089, 4089, 4089, 4089, 4089, 4089, 4089, 4089, 4089, 4089, 4089, 4139, 4139, 4089, 4089, 4089, 4139, 4190, 4190, 4139, 4139, 4139, 4139, 4139, 4139, 4139, 4139, 4139, 4190, 4190, 4190, 4190, 4139, 4139, 4139, 4139, 4089, 4089, 4089, 4139, 4139, 4139, 4190, 4190, 4190, 4190, 4190, 4190, 4190, 4241, 4295, 4295, 4295, 4295, 4295, 4349, 4295, 4295, 4241, 4139, 4139, 4139, 4089, 4463, 4463, 4463, 4463, 4463, 4463, 4463, 4463, 4522, 4522, 4522, 4522, 4522, 4522, 4522, 4522, 4522, 4522, 4522, 4522, 4522, 4522, 4522, 4522, 4522, 4522, 4522, 4522, 4522, 4522, 4582, 4582, 4582, 4582, 4582, 4582, 4582, 4582, 4582, 4582, 4582, 4582, 4582, 4582, 4582, 4582, 4582, 4582, 4582, 4582, 4582, 4582, 4522, 4522, 4522, 4522, 4522, 4522, 4522, 4522, 4522, 4522, 4522, 4522, 4522, 4522, 4522, 4582, 4582, 4582, 4582, 4582, 4582, 4582, 4582, 4582, 4582, 4582, 4582, 4522, 4522, 4582, 4582, 4582, 4582, 4582, 4582, 4582, 4582, 4645, 4645, 4645, 4645, 4645, 4645, 4645, 4645, 4645, 4645, 4645, 4645, 4645, 4582, 4582, 4645, 4582, 4582, 4582, 4645, 4645, 4645, 4645, 4645, 4645, 4645, 4645, 4645, 4582, 4582, 4582, 4582, 4645, 4774, 4774, 4774, 4842, 4842, 4842, 4774, 4774, 4774, 4842, 4842, 4842, 4842, 4842, 4842, 4842, 4842, 4774, 4774, 4774, 4774, 4774, 4774, 4774, 4774, 4774, 4774, 4774, 4842, 4842, 4842, 4842, 4842, 4842, 4842, 4842, 4911, 4911, 4911, 4842, 4842, 4911, 4842, 4842, 4842, 4842, 4774, 4774, 4774, 4774, 4774, 4774, 4708, 4708, 4708, 4774, 4774, 4774, 4842, 4842, 4842, 4842, 4842, 4774, 4774, 4774, 4774, 4842, 4774, 4774, 4774, 4774, 4774, 4774, 4774, 4774, 4774, 4774, 4842, 4774, 4774, 4774, 4708, 4708, 4708, 4708, 4708, 4774, 4774, 4842, 4842, 4842, 4842, 4842, 4842, 4842, 4842, 4774, 4774, 4842, 4983, 4983, 5132, 5210, 5291, 5291, 5291, 5291, 5291, 5291, 5291, 5291, 5291, 5291, 5291, 5291, 5291, 5291, 5291, 5291, 5291, 5291, 5210, 5210, 5210, 5210, 5210, 5210, 5132, 5132, 5132, 5132, 5132, 5132, 5132, 5132, 5132, 5132, 5132, 5132, 5132, 5210, 5210, 5132, 5132, 5132, 5132, 5132, 5132, 5132, 5132, 5132, 5132, 5056, 5056, 5056, 5056, 5056, 5056, 5056, 5056, 5056, 5056, 5056, 4983, 4983, 5056, 5056, 5056, 5056, 5056, 5056, 5056, 5056, 5056, 5056, 5056, 5056, 5056, 5056, 5056, 5056, 5056, 5056, 5056, 4983, 4983, 4983, 4983, 5056, 5056, 5056, 4983, 4983, 4983, 4983, 4911, 4842, 4774, 4774, 4774, 4774, 4774, 4774, 4774, 4708, 4645, 4645, 4645, 4645, 4582, 4522, 4463, 4463, 4405, 4405, 4349, 4295, 4295, 4241, 4241, 4241, 4295, 4295, 4295, 4295, 4295, 4295, 4241, 4241, 4241, 4190, 4190, 4241, 4241, 4190, 4190, 4190, 4190, 4190, 4190, 4139, 4139, 4139, 4190, 4190, 4190, 4190, 4190, 4190, 4190, 4190, 4190, 4190, 4139, 4139, 4139
0, 0, 0, 3948, 3948, 3948, 3948, 3948, 3948, 3948, 3948, 3948, 3948, 3994, 3994, 3994, 3994, 3948, 3948, 3948, 3948, 3948, 3948, 3948, 3948, 3948, 3948, 3948, 3948, 3948, 3948, 3948, 3948, 3948, 3948, 3948, 3948, 3948, 3948, 3948, 3994, 3994, 3994, 3994, 3994, 3994, 3994, 3994, 3994, 3994, 3948, 3948, 3948, 3948, 3948, 3948, 3948, 3948, 3994, 3994, 4041, 4041, 4041, 4041, 4041, 4041, 4041, 4041, 4089, 4089, 4089, 4041, 4041, 4041, 4041, 4041, 4041, 4041, 4041, 4041, 4041, 4041, 4041, 4041, 4041, 4041, 4089, 4089, 4089, 4089, 4089, 4089, 4089, 4089, 4089, 4089, 4089, 4089, 4089, 4089, 4089, 4089, 4041, 4041, 4089, 4089, 4139, 4089, 4089, 4089, 4139, 4190, 4190, 4139, 4139, 4139, 4139, 4139, 4139, 4089, 4089, 4139, 4139, 4190, 4190, 4190, 4139, 4139, 4139, 4139, 4089, 4089, 4089, 4139, 4139, 4139, 4139, 4139, 4139, 4139, 4139, 4139, 4139, 4139, 4139, 4190, 4241, 4241, 4241, 4241, 4241, 4241, 4190, 4139, 4139, 4089, 4089, 4089, 4463, 4463, 4463, 4463, 4463, 4463, 4463, 4463, 4522, 4522, 4522, 4522, 4522, 4522, 4522, 4522, 4522, 4522, 4522, 4522, 4522, 4522, 4522, 4522, 4522, 4522, 4522, 4522, 4522, 4582, 4582, 4582, 4582, 4582, 4582, 4582, 4582, 4582, 4582, 4582, 4582, 4582, 4582, 4582, 4582, 4582, 4582, 4582, 4582, 4582, 4582, 4582, 4522, 4522, 4522, 4522, 4522, 4522, 4522, 4522, 4522, 4522, 4522, 4522, 4522, 4582, 4582, 4582, 4582, 4582, 4582, 4582, 4582, 4582, 4582, 4582, 4582, 4582, 4582, 4582, 4582, 4582, 4582, 4582, 4582, 4582, 4582, 4582, 4645, 4645, 4645, 4645, 4645, 4645, 4645, 4645, 4645, 4645, 4645, 4645, 4645, 4645, 4645, 4645, 4645, 4645, 4645, 4645, 4645, 4645, 4645, 4645, 4645, 4645, 4582, 4582, 4582, 4582, 4582, 4582, 4645, 4774, 4774, 4774, 4774, 4842, 4842, 4774, 4774, 4774, 4842, 4842, 4842, 4842, 4842, 4842, 4842, 4842, 4842, 4774, 4774, 4774, 4774, 4774, 4774, 4774, 4774, 4774, 4842, 4842, 4842, 4842, 4842, 4842, 4842, 4842, 4911, 4911, 4911, 4911, 4842, 4842, 4842, 4842, 4842, 4842, 4842, 4774, 4774, 4774, 4774, 4708, 4708, 4708, 4708, 4708, 4774, 4774, 4774, 4842, 4842, 4842, 4842, 4842, 4842, 4842, 4842, 4842, 4842, 4774, 4774, 4774, 4774, 4774, 4774, 4774, 4774, 4774, 4774, 4774, 4774, 4774, 4774, 4708, 4708, 4708, 4708, 4708, 4774, 4774, 4842, 4774, 4774, 4774, 4842, 4842, 4842, 4842, 4774, 4774, 4842, 4911, 4983, 5056, 5056, 5210, 5291, 5291, 5291, 5291, 5291, 5291, 5291, 5291, 5291, 5291, 5291, 5291, 5291, 5291, 5291, 5291, 5291, 5291, 5210, 5210, 5210, 5210, 5210, 5132, 5132, 5132, 5132, 5132, 5132, 5132, 5132, 5132, 5132, 5132, 5132, 5210, 5210, 5210, 5132, 5132, 5132, 5210, 5132, 5132, 5132, 5132, 5132, 5132, 5056, 5056, 5056, 5056, 5056, 5056, 5056, 5056, 5056, 5056, 5056, 5056, 5056, 5056, 5056, 5056, 5056, 5056, 5056, 5056, 5056, 5056, 5056, 5056, 5056, 5056, 5056, 5056, 5056, 5056, 5056, 5056, 5056, 5056, 4983, 4983, 5056, 5056, 5056, 4983, 4983, 4983, 4983, 4911, 4842, 4774, 4774, 4774, 4774, 4774, 4708, 4708, 4708, 4645, 4645, 4645, 4582, 4582, 4522, 4463, 4463, 4463, 4405, 4349, 4295, 4295, 4241, 4241, 4241, 4295, 4295, 4295, 4295, 4295, 4295, 4241, 4241, 4241, 4190, 4190, 4241, 4241, 4190, 4190, 4190, 4190, 4190, 4190, 4139, 4139, 4139, 4139, 4139, 4139, 4190, 4190, 4190, 4190, 4190, 4190, 4190, 4190, 4190, 4190
0, 0, 0, 3948, 3948, 3948, 3948, 3903, 3903, 3948, 3948, 3948, 3948, 3994, 3994, 3994, 3994, 3948, 3948, 3948, 3948, 3948, 3948, 3948, 3948, 3948, 3948, 3948, 3948, 3948, 3948, 3948, 3948, 3948, 3948, 3948, 3948, 3948, 3994, 3994, 3994, 3994, 3994, 3994, 3994, 3994, 3994, 3948, 3948, 3948, 3948, 3948, 3948, 3948, 3948, 3948, 3948, 3948, 3994, 3994, 3994, 4041, 4041, 4041, 4041, 4041, 4041, 4041, 4041, 4041, 4041, 4041, 4041, 4041, 4041, 4041, 4041, 4041, 4041, 4041, 4041, 4041, 4041, 4041, 4041, 4041, 4089, 4089, 4041, 4041, 4041, 4041, 4089, 4089, 4089, 4089, 4089, 4089, 4089, 4089, 4089, 4041, 4041, 4041, 4041, 4089, 4089, 4041, 4041, 4041, 4089, 4139, 4139, 4139, 4139, 4139, 4139, 4089, 4089, 4089, 4089, 4089, 4139, 4139, 4139, 4139, 4089, 4089, 4139, 4089, 4089, 4089, 4089, 4089, 4089, 4139, 4089, 4089, 4139, 4089, 4089, 4089, 4089, 4089, 4089, 4089, 4139, 4190, 4241, 4241, 4241, 4190, 4190, 4139, 4139, 4089, 4089, 4139, 4139, 4405, 4405, 4405, 4463, 4463, 4463, 4463, 4522, 4522, 4522, 4522, 4522, 4522, 4522, 4522, 4522, 4522, 4522, 4522, 4522, 4522, 4522, 4522, 4522, 4522, 4522, 4522, 4522, 4582, 4582, 4582, 4582, 4582, 4582, 4582, 4582, 4582, 4582, 4582, 4582, 4582, 4582, 4582, 4582, 4582, 4645, 4645, 4582, 4582, 4582, 4582, 4522, 4522, 4522, 4522, 4522, 4522, 4522, 4522, 4522, 4522, 4522, 4522, 4522, 4582, 4582, 4582, 4582, 4582, 4582, 4582, 4582, 4582, 4582, 4582, 4582, 4582, 4582, 4582, 4582, 4582, 4582, 4582, 4582, 4582, 4582, 4582, 4645, 4645, 4645, 4645, 4645, 4645, 4645, 4645, 4645, 4645, 4645, 4645, 4645, 4645, 4645, 4708, 4645, 4645, 4645, 4708, 4708, 4708, 4645, 4645, 4645, 4645, 4582, 4582, 4582, 4582, 4522, 4522, 4582, 4645, 4708, 4774, 4774, 4774, 4774, 4774, 4774, 4774, 4842, 4842, 4842, 4842, 4842, 4842, 4842, 4842, 4842, 4774, 4774, 4774, 4774, 4774, 4774, 4774, 4774, 4774, 4842, 4911, 4911, 4842, 4842, 4842, 4842, 4842, 4911, 4911, 4911, 4911, 4842, 4842, 4842, 4842, 4842, 4842, 4842, 4774, 4774, 4774, 4774, 4708, 4708, 4708, 4708, 4708, 4774, 4774, 4774, 4842, 4842, 4842, 4911, 4842, 4842, 4842, 4842, 4842, 4842, 4774, 4774, 4708, 4708, 4774, 4708, 4708, 4774, 4774, 4774, 4774, 4774, 4774, 4774, 4774, 4774, 4774, 4708, 4708, 4774, 4774, 4774, 4774, 4774, 4774, 4842, 4842, 4842, 4842, 4774, 4774, 4842, 4911, 4983, 5056, 5056, 5210, 5291, 5291, 5291, 5291, 5291, 5291, 5291, 5291, 5210, 5210, 5210, 5291, 5291, 5291, 5291, 5291, 5291, 5291, 5210, 5210, 5210, 5210, 5210, 5132, 5132, 5132, 5132, 5132, 5132, 5132, 5132, 5132, 5056, 5056, 5132, 5132, 5132, 5132, 5132, 5132, 5132, 5132, 5132, 5132, 5132, 5132, 5132, 5132, 5132, 5056, 5056, 5056, 5056, 5056, 5056, 5056, 5056, 5056, 5056, 5056, 5056, 5056, 5056, 5056, 5132, 5056, 5056, 5056, 5056, 5056, 5056, 5056, 5056, 5056, 5056, 5056, 5056, 5056, 5056, 5056, 5056, 5056, 4983, 4983, 5056, 5056, 5056, 4983, 4983, 4983, 4983, 4911, 4842, 4842, 4842, 4774, 4774, 4774, 4708, 4708, 4708, 4645, 4582, 4582, 4582, 4522, 4463, 4463, 4463, 4405, 4405, 4349, 4349, 4295, 4241, 4241, 4295, 4295, 4295, 4295, 4295, 4295, 4295, 4241, 4241, 4241, 4241, 4241, 4241, 4241, 4190, 4190, 4190, 4190, 4190, 4190, 4139, 4139, 4139, 4139, 4139, 4139, 4190, 4190, 4190, 4190, 4190, 4190, 4190, 4190, 4190, 4190
0, 0, 0, 3948, 3948, 3948, 3903, 3903, 3903, 3948, 3948, 3903, 3903, 3903, 3994, 3994, 3994, 3948, 3948, 3948, 3948, 3948, 3948, 3948, 3948, 3948, 3948, 3948, 3948, 3948, 3948, 3948, 3948, 3948, 3948, 3948, 3948, 3948, 3994, 3994, 3994, 3994, 3994, 3994, 3994, 3994, 3994, 3948, 3948, 3948, 3948, 3948, 3948, 3948, 3948, 3948, 3948, 3948, 3994, 3994, 3994, 4041, 4041, 4041, 4041, 4041, 3994, 3994, 4041, 4041, 4041, 4041, 4041, 4041, 4041, 4041, 4041, 4041, 4041, 4041, 4041, 4041, 4041, 4041, 4041, 4041, 4041, 4041, 4041, 4041, 4041, 4041, 4089, 4089, 4089, 4089, 4089, 4089, 4089, 4089, 4089, 4041, 4041, 4041, 4041, 4089, 4089, 4041, 4041, 4041, 4089, 4139, 4139, 4139, 4139, 4139, 4139, 4089, 4089, 4041, 4041, 4041, 4089, 4089, 4139, 4139, 4089, 4089, 4139, 4089, 4089, 4089, 4089, 4089, 4089, 4139, 4089, 4089, 4139, 4089, 4089, 4089, 4089, 4089, 4089, 4089, 4089, 4190, 4190, 4190, 4241, 4190, 4190, 4190, 4139, 4089, 4089, 4139, 4190, 4241, 4295, 4349, 4405, 4463, 4463, 4463, 4522, 4522, 4522, 4582, 4582, 4522, 4522, 4522, 4522, 4522, 4522, 4522, 4522, 4522, 4522, 4522, 4522, 4522, 4522, 4522, 4522, 4582, 4582, 4582, 4582, 4582, 4582, 4582, 4582, 4582, 4582, 4582, 4582, 4582, 4582, 4582, 4582, 4582, 4582, 4645, 4582, 4582, 4582, 4582, 4522, 4522, 4522, 4522, 4522, 4522, 4522, 4522, 4522, 4522, 4522, 4522, 4522, 4582, 4582, 4582, 4582, 4582, 4582, 4582, 4582, 4582, 4582, 4582, 4582, 4582, 4582, 4582, 4582, 4582, 4582, 4582, 4582, 4582, 4582, 4582, 4645, 4645, 4645, 4645, 4645, 4645, 4645, 4645, 4645, 4645, 4645, 4645, 4645, 4645, 4645, 4708, 4645, 4645, 4645, 4645, 4708, 4708, 4645, 4645, 4645, 4645, 4582, 4582, 4582, 4582, 4522, 4522, 4582, 4645, 4708, 4708, 4708, 4774, 4774, 4774, 4774, 4774, 4842, 4842, 4842, 4842, 4842, 4842, 4774, 4774, 4774, 4774, 4774, 4774, 4774, 4774, 4774, 4774, 4774, 4774, 4842, 4911, 4911, 4842, 4842, 4842, 4842, 4842, 4842, 4842, 4842, 4842, 4842, 4842, 4842, 4842, 4842, 4842, 4842, 4842, 4774, 4774, 4774, 4708, 4708, 4708, 4708, 4708, 4774, 4774, 4774, 4842, 4842, 4842, 4911, 4911, 4842, 4842, 4842, 4842, 4842, 4842, 4774, 4708, 4708, 4708, 4708, 4708, 4708, 4774, 4774, 4774, 4774, 4774, 4774, 4774, 4774, 4774, 4708, 4708, 4774, 4774, 4774, 4774, 4774, 4774, 4842, 4842, 4842, 4842, 4842, 4842, 4911, 4983, 4983, 5056, 5132, 5210, 5291, 5291, 5291, 5291, 5291, 5291, 5291, 5291, 5210, 5210, 5210, 5210, 5291, 5291, 5291, 5291, 5291, 5291, 5291, 5291, 5210, 5210, 5210, 5132, 5132, 5132, 5132, 5132, 5132, 5132, 5132, 5132, 5056, 5056, 5132, 5132, 5132, 5132, 5132, 5132, 5132, 5132, 5132, 5132, 5132, 5132, 5132, 5132, 5132, 5132, 5056, 5056, 5056, 5056, 5056, 5056, 5056, 5056, 5056, 5056, 5056, 5056, 5056, 5056, 5132, 5132, 5132, 5132, 5132, 5132, 5132, 5132, 5132, 5132, 5056, 5056, 5056, 5056, 5056, 5056, 5056, 5056, 5056, 5056, 5056, 5056, 4983, 4983, 4983, 4983, 4911, 4911, 4842, 4842, 4842, 4774, 4774, 4774, 4708, 4708, 4708, 4645, 4582, 4582, 4522, 4522, 4463, 4405, 4405, 4405, 4405, 4349, 4349, 4349, 4295, 4295, 4295, 4295, 4295, 4295, 4295, 4295, 4295, 4295, 4241, 4241, 4241, 4241, 4190, 4190, 4190, 4190, 4190, 4190, 4190, 4190, 4139, 4139, 4139, 4139, 4139, 4139, 4190, 4190, 4190, 4190, 4190, 4190, 4190, 4190, 4190, 4190
0, 0, 0, 3948, 3948, 3948, 3903, 3903, 3903, 3948, 3948, 3903, 3903, 3903, 3948, 3994, 3994, 3948, 3948, 3948, 3948, 3948, 3948, 3948, 3948, 3948, 3994, 3994, 3994, 3948, 3948, 3948, 3948, 3948, 3948, 3948, 3948, 3948, 3994, 3994, 3994, 3994, 3994, 3994, 3994, 3994, 3994, 3948, 3948, 3948, 3948, 3948, 3948, 3903, 3903, 3948, 3948, 3948, 3994, 3994, 3994, 4041, 4041, 4041, 3994, 3994, 3994, 3994, 4041, 4041, 4041, 4041, 4041, 4041, 4041, 4041, 4041, 4041, 4041, 4041, 4041, 4041, 4041, 4041, 4041, 4041, 4041, 4041, 4041, 4041, 4041, 4041, 4041, 4041, 4041, 4089, 4089, 4089, 4089, 4089, 4089, 4041, 4041, 4041, 4041, 4089, 4089, 4041, 4041, 4089, 4089, 4190, 4190, 4139, 4139, 4139, 4139, 4089, 4089, 4041, 4041, 4041, 4041, 4041, 4089, 4089, 4089, 4089, 4089, 4089, 4089, 4089, 4089, 4089, 4089, 4139, 4089, 4089, 4139, 4089, 4089, 4089, 4089, 4089, 4089, 4089, 4089, 4139, 4190, 4190, 4190, 4190, 4190, 4190, 4190, 4139, 4139, 4139, 4190, 4241, 4295, 4295, 4349, 4405, 4463, 4463, 4522, 4522, 4522, 4582, 4582, 4522, 4522, 4522, 4522, 4522, 4522, 4522, 4522, 4522, 4522, 4522, 4522, 4522, 4522, 4522, 4522, 4582, 4582, 4582, 4582, 4582, 4582, 4582, 4582, 4582, 4582, 4582, 4582, 4582, 4582, 4582, 4582, 4582, 4582, 4582, 4582, 4582, 4582, 4582, 4522, 4522, 4522, 4522, 4522, 4522, 4522, 4522, 4522, 4522, 4522, 4522, 4522, 4582, 4582, 4582, 4582, 4582, 4582, 4582, 4582, 4582, 4582, 4582, 4582, 4582, 4582, 4582, 4582, 4582, 4582, 4582, 4582, 4582, 4582, 4582, 4645, 4645, 4645, 4645, 4582, 4582, 4645, 4645, 4645, 4645, 4645, 4645, 4645, 4645, 4645, 4645, 4645, 4645, 4645, 4645, 4645, 4645, 4645, 4645, 4645, 4645, 4582, 4582, 4582, 4582, 4582, 4582, 4582, 4645, 4708, 4708, 4708, 4708, 4774, 4774, 4774, 4774, 4774, 4774, 4842, 4842, 4842, 4842, 4774, 4774, 4774, 4774, 4774, 4774, 4774, 4774, 4774, 4774, 4774, 4774, 4842, 4911, 4911, 4842, 4842, 4842, 4842, 4842, 4842, 4842, 4842, 4842, 4842, 4842, 4842, 4842, 4842, 4842, 4774, 4774, 4774, 4774, 4708, 4708, 4708, 4708, 4708, 4708, 4774, 4842, 4842, 4842, 4842, 4842, 4842, 4911, 4842, 4842, 4842, 4842, 4842, 4842, 4774, 4708, 4708, 4708, 4708, 4708, 4708, 4774, 4774, 4774, 4774, 4774, 4774, 4774, 4774, 4774, 4708, 4708, 4774, 4774, 4774, 4774, 4774, 4774, 4842, 4842, 4842, 4842, 4842, 4842, 4911, 4983, 5056, 5132, 5132, 5291, 5291, 5291, 5374, 5374, 5374, 5291, 5291, 5210, 5210, 5210, 5210, 5210, 5210, 5291, 5291, 5291, 5291, 5291, 5291, 5291, 5291, 5210, 5210, 5210, 5210, 5210, 5210, 5210, 5132, 5132, 5132, 5056, 5056, 5056, 5056, 5132, 5056, 5056, 5056, 5056, 5056, 5132, 5132, 5132, 5132, 5132, 5132, 5132, 5132, 5132, 5132, 5056, 5056, 5056, 5056, 5056, 5056, 5056, 5056, 5056, 5056, 5132, 5132, 5132, 5132, 5132, 5132, 5132, 5132, 5132, 5132, 5132, 5132, 5132, 5056, 5056, 5056, 5056, 5056, 5056, 5056, 5056, 5056, 5056, 5056, 5056, 4983, 4983, 4983, 4983, 4911, 4911, 4842, 4842, 4842, 4842, 4774, 4774, 4708, 4708, 4708, 4645, 4582, 4582, 4522, 4522, 4463, 4405, 4405, 4405, 4405, 4349, 4349, 4349, 4295, 4295, 4295, 4295, 4295, 4295, 4295, 4295, 4295, 4295, 4241, 4241, 4241, 4241, 4190, 4190, 4190, 4190, 4190, 4190, 4190, 4190, 4139, 4139, 4190, 4190, 4190, 4190, 4190, 4190, 4190, 4190, 4190, 4190, 4190, 4190, 4190, 4190
0, 0, 0, 3948, 3903, 3903, 3903, 3903, 3903, 3903, 3948, 3994, 3948, 3948, 3948, 3994, 3994, 3948, 3948, 3948, 3948, 3948, 3948, 3994, 3994, 3994, 3994, 3994, 3994, 3994, 3994, 3948, 3948, 3948, 3948, 3948, 3948, 3948, 3994, 3994, 3994, 3994, 3994, 3994, 3994, 3994, 3948, 3948, 3948, 3903, 3903, 3903, 3903, 3903, 3903, 3948, 3948, 3948, 3994, 3994, 3994, 3994, 4041, 4041, 3994, 3994, 3994, 3994, 4041, 4041, 4041, 4041, 4041, 4041, 4041, 4041, 4041, 4041, 4041, 4041, 4041, 4041, 4041, 4089, 4041, 4041, 4041, 4041, 4041, 4041, 4041, 4041, 4041, 4041, 4041, 4089, 4089, 4089, 4089, 4089, 4089, 4041, 4041, 4041, 4041, 4089, 4089, 4041, 4041, 0, 0, 4241, 4241, 4190, 4190, 4139, 4139, 4041, 4041, 4041, 4041, 4041, 4041, 4041, 4089, 4089, 4041, 4041, 4089, 4089, 4089, 4089, 4089, 4089, 4089, 4139, 4139, 4139, 4139, 4089, 4089, 4089, 4089, 4089, 4089, 4089, 4089, 4139, 4139, 4139, 4190, 4190, 4190, 4190, 4190, 4139, 4139, 4190, 4190, 4190, 4241, 4295, 4349, 4405, 4463, 4463, 4522, 4522, 4582, 4582, 4582, 4582, 4522, 4522, 4522, 4522, 4522, 4522, 4522, 4522, 4522, 4522, 4522, 4522, 4522, 4522, 4522, 4582, 4582, 4582, 4582, 4582, 4582, 4582, 4582, 4582, 4582, 4582, 4582, 4582, 4582, 4582, 4582, 4582, 4582, 4582, 4582, 4582, 4582, 4582, 4522, 4522, 4522, 4522, 4522, 4522, 4522, 4522, 4522, 4522, 4522, 4522, 4522, 4522, 4582, 4582, 4582, 4582, 4582, 4582, 4582, 4582, 4582, 4582, 4582, 4582, 4582, 4582, 4582, 4582, 4582, 4582, 4582, 4582, 4582, 4582, 4645, 4645, 4582, 4582, 4582, 4582, 4582, 4582, 4582, 4582, 4645, 4645, 4645, 4645, 4645, 4645, 4645, 4645, 4645, 4645, 4645, 4645, 4645, 4645, 4645, 4645, 4582, 4582, 4645, 4582, 4582, 4582, 4582, 4645, 4708, 4708, 4708, 4708, 4774, 4774, 4774, 4774, 4774, 4774, 4842, 4842, 4842, 4842, 4842, 4774, 4774, 4774, 4774, 4774, 4774, 4774, 4774, 4842, 4842, 4842, 4842, 4911, 4911, 4842, 4842, 4842, 4842, 4842, 4842, 4842, 4842, 4842, 4774, 4774, 4842, 4842, 4842, 4842, 4774, 4774, 4774, 4774, 4708, 4708, 4708, 4708, 4708, 4708, 4774, 4842, 4842, 4842, 4842, 4842, 4842, 4842, 4842, 4842, 4842, 4842, 4842, 4842, 4774, 4774, 4774, 4774, 4774, 4774, 4774, 4774, 4774, 4842, 4774, 4774, 4774, 4774, 4774, 4774, 4708, 4708, 4774, 4774, 4774, 4774, 4774, 4774, 4842, 4842, 4842, 4842, 4842, 4842, 4911, 4983, 5056, 5132, 5132, 5291, 5291, 5291, 5374, 5374, 5374, 5291, 5291, 5210, 5210, 5210, 5210, 5210, 5210, 5210, 5210, 5291, 5291, 5291, 5291, 5291, 5291, 5210, 5210, 5210, 5210, 5210, 5210, 5210, 5132, 5132, 5132, 5056, 5056, 5056, 5056, 5056, 5056, 5056, 5056, 5056, 5056, 5132, 5132, 5132, 5132, 5132, 5132, 5132, 5132, 5132, 5132, 5132, 5132, 5056, 5056, 5056, 5056, 5056, 5056, 5056, 5056, 5132, 5132, 5132, 5132, 5132, 5132, 5132, 5132, 5132, 5132, 5132, 5132, 5132, 5056, 5056, 5056, 5056, 5056, 5056, 5056, 5056, 5056, 5056, 5056, 5056, 5056, 4983, 4983, 4983, 4911, 4911, 4842, 4842, 4842, 4842, 4774, 4774, 4708, 4708, 4708, 4645, 4582, 4582, 4522, 4522, 4463, 4463, 4463, 4405, 4405, 4405, 4349, 4349, 4295, 4295, 4295, 4295, 4295, 4295, 4295, 4295, 4295, 4295, 4295, 4241, 4241, 4241, 4190, 4190, 4190, 4190, 4190, 4190, 4190, 4190, 4190, 4190, 4190, 4190, 4190, 4190, 4190, 4190, 4190, 4190, 4190, 4190, 4190, 4190, 4190, 4190
0, 0, 0, 3903, 3903, 3903, 3903, 3903, 3903, 3903, 3948, 3859, 3859, 3948, 3948, 3994, 3994, 3948, 3948, 3948, 3948, 3948, 3948, 3994, 3994, 3994, 3994, 3994, 3994, 3994, 3948, 3948, 3948, 3948, 3948, 3948, 3948, 3948, 3994, 3994, 3994, 3994, 3994, 3994, 3994, 3994, 3948, 3948, 3948, 3903, 3903, 3903, 3903, 3948, 3948, 3948, 3948, 3948, 3994, 3994, 3994, 3994, 4041, 4041, 3994, 3994, 3994, 3994, 4041, 4041, 4041, 4041, 4041, 4041, 4041, 4041, 4041, 4041, 4041, 4041, 4089, 4089, 4089, 4089, 4089, 4089, 4041, 4041, 4041, 4041, 4041, 4041, 4041, 4041, 4041, 4041, 4041, 4041, 4089, 4089, 4089, 4041, 4041, 4041, 4089, 4089, 4089, 4041, 4041, 0, 0, 0, 0, 0, 0, 4139, 4139, 4041, 4041, 4041, 4041, 4041, 4041, 4041, 4089, 4089, 4041, 4041, 4089, 4089, 4089, 4089, 4089, 4139, 4139, 4139, 4139, 4139, 4139, 4139, 4089, 4089, 4089, 4089, 4089, 4089, 4089, 4139, 4139, 4139, 4190, 4190, 4190, 4190, 4190, 4190, 4190, 4190, 4190, 4190, 4241, 4241, 4295, 4405, 4463, 4522, 4522, 4582, 4582, 4582, 4582, 4582, 4582, 4582, 4582, 4522, 4522, 4522, 4522, 4522, 4522, 4522, 4522, 4522, 4522, 4522, 4522, 4582, 4582, 4582, 4582, 4582, 4582, 4582, 4582, 4582, 4582, 4582, 4582, 4582, 4582, 4582, 4582, 4582, 4582, 4582, 4582, 4582, 4582, 4582, 4522, 4522, 4522, 4522, 4522, 4522, 4522, 4522, 4522, 4522, 4522, 4522, 4522, 4522, 4522, 4522, 4522, 4582, 4582, 4582, 4582, 4582, 4582, 4582, 4582, 4582, 4582, 4582, 4582, 4582, 4582, 4582, 4582, 4582, 4582, 4582, 4582, 4582, 4582, 4582, 4582, 4582, 4582, 4582, 4582, 4582, 4645, 4645, 4645, 4645, 4645, 4645, 4645, 4645, 4645, 4645, 4645, 4645, 4645, 4645, 4645, 4645, 4645, 4645, 4645, 4582, 4582, 4582, 4582, 4645, 4645, 4645, 4645, 4708, 4708, 4708, 4774, 4774, 4774, 4774, 4842, 4842, 4842, 4842, 4842, 4774, 4774, 4842, 4842, 4842, 4774, 4774, 4774, 4842, 4842, 4842, 4842, 4842, 4842, 4842, 4842, 4842, 4842, 4842, 4842, 4842, 4842, 4842, 4774, 4774, 4842, 4842, 4774, 4774, 4774, 4774, 4708, 4708, 4708, 4708, 4708, 4708, 4708, 4774, 4842, 4842, 4842, 4911, 4911, 4842, 4842, 4842, 4842, 4842, 4842, 4842, 4842, 4842, 4774, 4708, 4708, 4774, 4774, 4774, 4774, 4842, 4842, 4842, 4774, 4774, 4774, 4774, 4774, 4774, 4708, 4708, 4774, 4774, 4842, 4774, 4774, 4774, 4842, 4774, 4774, 4774, 4774, 4774, 4842, 4911, 4983, 5132, 5132, 5291, 5374, 5374, 5374, 5374, 5374, 5291, 5291, 5291, 5210, 5210, 5210, 5210, 5210, 5210, 5210, 5291, 5291, 5291, 5291, 5291, 5291, 5291, 5210, 5210, 5210, 5210, 5210, 5210, 5132, 5132, 5132, 5056, 5056, 5056, 5056, 5056, 5056, 5056, 5056, 5056, 5056, 5132, 5132, 5132, 5132, 5132, 5132, 5132, 5132, 5132, 5132, 5132, 5132, 5132, 5132, 5056, 5056, 5056, 5056, 5132, 5132, 5132, 5132, 5132, 5132, 5132, 5132, 5132, 5132, 5132, 5132, 5132, 5132, 5132, 5056, 5056, 5056, 5056, 5056, 5056, 5056, 5056, 5056, 5056, 5056, 5056, 4983, 4983, 4983, 4983, 4911, 4911, 4842, 4842, 4842, 4842, 4774, 4774, 4708, 4708, 4708, 4645, 4582, 4582, 4522, 4522, 4463, 4463, 4463, 4405, 4405, 4405, 4349, 4349, 4349, 4349, 4349, 4349, 4349, 4295, 4295, 4295, 4295, 4295, 4295, 4295, 4295, 4241, 4241, 4241, 4241, 4190, 4190, 4190, 4190, 4190, 4190, 4190, 4190, 4190, 4190, 4190, 4190, 4190, 4190, 4190, 4190, 4190, 4190, 4190, 4190, 4190
0, 0, 0, 3903, 3903, 3903, 3903, 3859, 3859, 3903, 3903, 3859, 3859, 3948, 3948, 3994, 3994, 3948, 3948, 3948, 3903, 3903, 3903, 3994, 3994, 3994, 3994, 3994, 3994, 3994, 3948, 3948, 3948, 3948, 3948, 3948, 3948, 3948, 3948, 3994, 3994, 3994, 3994, 3994, 3994, 3948, 3948, 3948, 3948, 3903, 3903, 3903, 3903, 3948, 3948, 3948, 3948, 3948, 3994, 3994, 3994, 3994, 4041, 4041, 3994, 3994, 3994, 3994, 4041, 4041, 4041, 4041, 4089, 4089, 4089, 4089, 4089, 4089, 4089, 4089, 4089, 4041, 4041, 4041, 4041, 4041, 4041, 4041, 4041, 4041, 4041, 4041, 4041, 4041, 4041, 4041, 4041, 4041, 4089, 4089, 4089, 4041, 4041, 4089, 4089, 4089, 4089, 4089, 4089, 4041, 0, 0, 0, 0, 0, 3994, 3994, 3994, 3994, 3948, 3948, 3994, 3994, 3994, 3994, 4041, 4041, 4139, 4139, 4139, 4139, 4139, 4190, 4190, 4190, 4190, 4190, 4190, 4190, 4139, 4139, 4139, 4089, 4089, 4089, 4089, 4041, 4041, 4089, 4089, 4089, 4190, 4190, 4190, 4190, 4190, 4190, 4190, 4190, 4190, 4190, 4241, 4295, 4405, 4463, 4522, 4522, 4582, 4582, 4582, 4582, 4582, 4582, 4582, 4582, 4582, 4522, 4522, 4522, 4522, 4522, 4522, 4522, 4522, 4522, 4522, 4522, 4582, 4582, 4582, 4582, 4582, 4582, 4582, 4582, 4582, 4582, 4582, 4582, 4582, 4582, 4582, 4582, 4582, 4582, 4645, 4582, 4582, 4582, 4582, 4582, 4522, 4522, 4522, 4522, 4522, 4522, 4522, 4522, 4522, 4522, 4522, 4522, 4522, 4522, 4522, 4522, 4582, 4582, 4582, 4582, 4582, 4582, 4582, 4582, 4582, 4582, 4582, 4582, 4582, 4582, 4582, 4582, 4582, 4582, 4582, 4582, 4582, 4582, 4582, 4582, 4582, 4582, 4582, 4582, 4582, 4645, 4645, 4645, 4645, 4645, 4645, 4645, 4645, 4645, 4645, 4645, 4645, 4645, 4645, 4645, 4645, 4645, 4645, 4645, 4582, 4582, 4582, 4582, 4645, 4645, 4645, 4645, 4708, 4708, 4708, 4774, 4774, 4774, 4774, 4774, 4774, 4774, 4774, 4842, 4774, 4774, 4842, 4842, 4842, 4774, 4774, 4774, 4774, 4774, 4774, 4842, 4842, 4842, 4842, 4842, 4842, 4774, 4774, 4842, 4842, 4842, 4842, 4774, 4774, 4842, 4842, 4774, 4774, 4774, 4774, 4708, 4708, 4708, 4708, 4708, 4708, 4708, 4774, 4842, 4911, 4911, 4842, 4842, 4842, 4842, 4842, 4842, 4842, 4842, 4842, 4842, 4842, 4774, 4708, 4708, 4774, 4774, 4774, 4842, 4842, 4842, 4842, 4774, 4774, 4774, 4774, 4774, 4774, 4708, 4708, 4774, 4774, 4842, 4774, 4774, 4774, 4842, 4774, 4774, 4774, 4774, 4774, 4842, 4911, 4983, 5132, 5132, 5374, 5374, 5374, 5374, 5374, 5374, 5291, 5291, 5291, 5291, 5210, 5210, 5210, 5210, 5210, 5291, 5291, 5291, 5291, 5291, 5291, 5291, 5210, 5210, 5210, 5210, 5210, 5210, 5210, 5210, 5210, 5132, 5132, 5132, 5056, 5056, 5056, 5056, 5056, 5056, 5056, 5056, 5132, 5132, 5132, 5132, 5132, 5132, 5132, 5132, 5132, 5132, 5132, 5132, 5132, 5132, 5132, 5056, 5056, 5056, 5132, 5132, 5132, 5132, 5132, 5132, 5132, 5132, 5132, 5056, 5056, 5056, 5056, 5056, 5056, 5056, 5056, 5056, 5056, 5056, 5056, 5056, 5056, 5056, 5056, 5056, 5056, 4983, 4983, 4983, 4911, 4911, 4911, 4842, 4842, 4842, 4842, 4774, 4774, 4708, 4708, 4708, 4645, 4645, 4582, 4582, 4522, 4463, 4463, 4405, 4405, 4405, 4349, 4349, 4349, 4349, 4349, 4349, 4295, 4295, 4295, 4295, 4295, 4295, 4295, 4295, 4295, 4295, 4295, 4241, 4241, 4241, 4241, 4190, 4190, 4190, 4190, 4190, 4190, 4190, 4190, 4190, 4190, 4190, 4190, 4190, 4190, 4139, 4139, 4190, 4190, 4190, 4190
0, 0, 0, 3903, 3903, 3903, 3903, 3859, 3859, 3816, 3816, 3816, 3859, 3948, 3994, 3994, 3994, 3948, 3948, 3948, 3903, 3903, 3903, 3994, 3994, 3994, 3994, 3859, 3859, 3859, 3948, 3948, 3948, 3948, 3948, 3948, 3948, 3948, 3948, 3994, 3994, 3994, 3994, 3948, 3948, 3948, 3948, 3948, 3948, 3903, 3903, 3903, 3903, 3948, 3948, 3948, 3948, 3948, 3994, 3994, 3994, 4041, 4041, 4041, 4041, 3994, 3994, 4041, 4041, 4041, 4041, 4089, 4089, 4089, 4089, 4089, 4089, 4089, 4089, 4089, 4089, 4041, 4041, 4041, 4041, 4041, 4041, 4041, 4041, 4041, 4041, 4041, 4041, 4041, 4041, 4041, 4041, 4041, 4089, 4089, 4089, 4041, 4041, 4089, 4089, 4089, 4089, 0, 0, 0, 0, 0, 0, 0, 0, 0, 3994, 3994, 3994, 3948, 3948, 3994, 3994, 3994, 3994, 4041, 4041, 0, 4190, 4190, 4190, 4190, 4190, 4190, 4190, 4241, 4190, 4190, 4190, 4139, 4089, 4089, 4089, 4089, 4089, 4089, 4041, 4041, 4089, 4089, 4089, 4190, 4190, 4190, 4241, 4190, 4190, 4190, 4190, 4190, 4190, 4190, 4295, 4405, 4463, 4522, 4582, 4582, 4582, 4582, 4582, 4582, 4582, 4582, 4582, 4582, 4522, 4522, 4522, 4522, 4522, 4522, 4522, 4522, 4522, 4522, 4522, 4582, 4582, 4582, 4582, 4582, 4582, 4582, 4582, 4582, 4582, 4582, 4582, 4582, 4582, 4582, 4582, 4582, 4582, 4582, 4582, 4582, 4582, 4582, 4582, 4522, 4522, 4522, 4522, 4522, 4522, 4522, 4522, 4522, 4522, 4522, 4522, 4522, 4522, 4522, 4522, 4582, 4582, 4582, 4582, 4582, 4582, 4582, 4582, 4582, 4582, 4582, 4582, 4582, 4582, 4582, 4582, 4582, 4582, 4582, 4582, 4582, 4582, 4582, 4582, 4582, 4582, 4582, 4582, 4582, 4645, 4645, 4645, 4645, 4645, 4645, 4645, 4645, 4645, 4645, 4645, 4645, 4645, 4645, 4645, 4645, 4645, 4645, 4645, 4582, 4582, 4645, 4645, 4645, 4645, 4645, 4645, 4708, 4708, 4708, 4774, 4774, 4774, 4774, 4774, 4774, 4774, 4774, 4774, 4842, 4842, 4842, 4842, 4842, 4774, 4774, 4774, 4774, 4774, 4774, 4774, 4842, 4842, 4842, 4842, 4842, 4774, 4774, 4842, 4842, 4842, 4842, 4842, 4842, 4842, 4842, 4774, 4774, 4774, 4774, 4774, 4708, 4708, 4708, 4708, 4774, 4774, 4842, 4842, 4842, 4842, 4842, 4842, 4842, 4842, 4842, 4842, 4842, 4774, 4774, 4774, 4842, 4774, 4774, 4774, 4774, 4774, 4842, 4842, 4911, 4911, 4842, 4842, 4842, 4774, 4774, 4774, 4774, 4774, 4774, 4774, 4842, 4842, 4774, 4774, 4774, 4842, 4842, 4842, 4774, 4774, 4842, 4842, 4911, 5056, 5132, 5291, 5374, 5374, 5374, 5374, 5374, 5374, 5291, 5291, 5291, 5210, 5210, 5210, 5210, 5210, 5210, 5291, 5291, 5291, 5291, 5291, 5291, 5291, 5210, 5210, 5210, 5210, 5210, 5210, 5210, 5210, 5210, 5132, 5132, 5132, 5132, 5056, 5056, 5056, 5056, 5056, 5056, 5056, 5132, 5132, 5132, 5132, 5132, 5132, 5132, 5132, 5132, 5132, 5132, 5132, 5132, 5132, 5132, 5056, 5056, 5132, 5132, 5132, 5132, 5132, 5132, 5132, 5132, 5132, 5056, 5056, 5056, 5056, 5056, 5056, 5056, 5056, 5056, 5056, 5056, 5056, 5056, 5056, 5056, 5056, 5056, 5056, 5056, 4983, 4983, 4983, 4911, 4911, 4911, 4842, 4842, 4842, 4842, 4774, 4774, 4708, 4708, 4708, 4645, 4582, 4582, 4522, 4522, 4463, 4463, 4405, 4405, 4405, 4349, 4349, 4349, 4349, 4349, 4349, 4295, 4295, 4295, 4295, 4295, 4295, 4349, 4349, 4295, 4295, 4295, 4241, 4241, 4241, 4241, 4190, 4190, 4190, 4190, 4190, 4190, 4190, 4190, 4190, 4190, 4190, 4190, 4190, 4190, 4139, 4139, 4190, 4190, 4190, 4190
0, 0, 0, 3903, 3903, 3903, 3903, 3859, 3859, 3816, 3816, 3816, 3948, 3948, 3948, 3948, 3994, 3948, 3948, 3948, 3903, 3903, 3903, 3948, 3948, 3948, 0, 3948, 3859, 3859, 3859, 3903, 3903, 3948, 3948, 3948, 3948, 3948, 3948, 3948, 3948, 3994, 3994, 3948, 3948, 3948, 3948, 3948, 3948, 3948, 3948, 3948, 0, 3948, 3948, 3948, 3948, 3948, 3994, 3994, 3994, 3994, 4041, 4041, 3994, 3994, 3994, 4041, 4041, 4041, 4041, 4041, 4139, 4139, 4139, 4139, 4089, 4089, 4089, 4089, 4089, 4041, 4041, 4041, 4041, 4041, 4041, 4041, 4041, 4041, 4041, 4041, 4041, 4041, 4041, 4041, 4089, 4089, 4089, 4089, 4139, 4089, 4089, 4089, 4089, 4089, 4089, 4041, 4041, 4041, 0, 0, 0, 0, 4089, 4041, 4041, 3994, 3994, 3948, 3948, 3994, 3994, 3994, 4041, 4041, 4041, 4139, 4190, 4190, 4190, 4190, 4190, 4190, 4190, 4139, 4139, 4139, 4139, 4139, 4089, 4089, 4089, 4089, 4089, 4089, 4089, 4089, 4089, 4139, 4139, 4190, 4190, 4241, 4241, 4241, 4241, 4241, 4190, 4190, 4190, 4190, 4295, 4405, 4463, 4522, 4582, 4582, 4582, 4582, 4582, 4582, 4582, 4582, 4582, 4582, 4522, 4522, 4522, 4522, 4522, 4522, 4522, 4522, 4522, 4522, 4522, 4582, 4582, 4582, 4582, 4582, 4582, 4582, 4582, 4582, 4582, 4582, 4582, 4582, 4582, 4582, 4582, 4582, 4582, 4582, 4582, 4582, 4582, 4582, 4582, 4582, 4522, 4522, 4582, 4582, 4582, 4522, 4522, 4522, 4522, 4522, 4522, 4522, 4522, 4522, 4522, 4582, 4582, 4582, 4582, 4582, 4582, 4582, 4582, 4582, 4582, 4582, 4582, 4582, 4582, 4582, 4582, 4582, 4582, 4582, 4582, 4582, 4582, 4582, 4582, 4582, 4582, 4582, 4582, 4582, 4645, 4645, 4582, 4582, 4645, 4645, 4645, 4645, 4645, 4645, 4645, 4645, 4645, 4645, 4645, 4645, 4645, 4645, 4645, 4645, 4645, 4645, 4645, 4645, 4708, 4645, 4645, 4708, 4708, 4774, 4774, 4774, 4774, 4774, 4774, 4774, 4774, 4774, 4774, 4774, 4774, 4842, 4842, 4842, 4774, 4774, 4774, 4774, 4774, 4774, 4774, 4842, 4842, 4774, 4774, 4774, 4774, 4774, 4842, 4842, 4842, 4842, 4842, 4842, 4842, 4774, 4774, 4774, 4708, 4708, 4774, 4774, 4774, 4774, 4774, 4774, 4774, 4842, 4842, 4842, 4842, 4842, 4842, 4842, 4842, 4842, 4842, 4842, 4774, 4774, 4774, 4842, 4774, 4774, 4774, 4774, 4774, 4842, 4911, 4911, 4911, 4911, 4842, 4842, 4774, 4774, 4774, 4774, 4708, 4708, 4774, 4774, 4842, 4774, 4774, 4842, 4842, 4842, 4842, 4842, 4842, 4842, 4911, 5056, 5132, 5210, 5291, 5374, 5374, 5374, 5374, 5374, 5374, 5291, 5291, 5291, 5210, 5210, 5210, 5210, 5210, 5210, 5291, 5291, 5291, 5291, 5291, 5291, 5291, 5210, 5210, 5210, 5210, 5210, 5210, 5210, 5210, 5210, 5210, 5210, 5210, 5132, 5056, 5056, 5056, 5056, 5056, 5056, 5056, 5132, 5132, 5132, 5132, 5132, 5132, 5132, 5132, 5132, 5132, 5132, 5132, 5132, 5132, 5132, 5132, 5132, 5132, 5132, 5132, 5132, 5132, 5132, 5132, 5132, 5132, 5056, 5056, 5056, 5056, 5056, 5056, 5056, 5056, 5056, 5056, 5056, 5056, 5056, 5056, 5056, 5056, 5056, 5056, 5056, 4983, 4983, 4983, 4911, 4911, 4842, 4842, 4842, 4842, 4842, 4774, 4774, 4708, 4708, 4708, 4645, 4582, 4582, 4522, 4522, 4463, 4463, 4405, 4405, 4405, 4405, 4405, 4349, 4349, 4349, 4295, 4295, 4295, 4295, 4295, 4295, 4295, 4295, 4295, 4295, 4295, 4295, 4241, 4241, 4241, 4241, 4190, 4190, 4190, 4190, 4190, 4190, 4190, 4241, 4190, 4190, 4190, 4190, 4190, 4190, 4190, 4190, 4190, 4190, 4190, 4190
0, 0, 0, 3903, 3903, 3903, 3903, 3859, 3859, 3903, 3903, 3903, 3948, 3948, 3948, 3948, 3994, 3948, 3948, 3948, 3948, 3994, 3948, 3948, 3948, 3948, 3948, 3948, 3948, 3859, 3859, 3903, 3903, 3948, 3948, 3948, 3948, 3948, 3948, 3948, 3948, 3948, 3948, 3948, 3948, 3948, 3948, 3948, 3948, 3948, 3948, 3948, 3948, 3948, 3948, 3948, 3903, 3903, 3948, 3994, 3994, 3994, 4041, 4041, 3994, 3994, 3994, 4041, 4041, 4041, 4041, 4089, 4089, 4139, 4139, 4139, 4089, 4089, 4089, 4089, 4089, 4041, 4041, 4041, 4041, 4041, 4041, 4041, 4041, 4041, 4041, 4041, 4041, 4041, 4041, 4041, 4089, 4089, 4089, 4089, 4139, 4089, 4089, 4089, 4089, 4089, 4041, 4041, 4041, 0, 0, 0, 4089, 4089, 4089, 4089, 4041, 3994, 3994, 3994, 3994, 3994, 3994, 3994, 4041, 4041, 4089, 4139, 4139, 4190, 4190, 4190, 4139, 4139, 4190, 4139, 4139, 4139, 4139, 4190, 4139, 4139, 4139, 4139, 4139, 4089, 4089, 4089, 4139, 4139, 4139, 4139, 4139, 4190, 4190, 4190, 4190, 4241, 4241, 4241, 4241, 4241, 4405, 4405, 4522, 4522, 4582, 4582, 4582, 4582, 4582, 4582, 4582, 4582, 4582, 4582, 4522, 4522, 4522, 4522, 4522, 4522, 4522, 4522, 4522, 4522, 4522, 4582, 4582, 4582, 4582, 4582, 4582, 4582, 4582, 4582, 4582, 4582, 4582, 4582, 4582, 4582, 4582, 4582, 4582, 4582, 4582, 4582, 4582, 4582, 4582, 4582, 4582, 4582, 4582, 4582, 4582, 4582, 4522, 4522, 4582, 4582, 4522, 4522, 4522, 4522, 4522, 4582, 4582, 4582, 4582, 4582, 4582, 4582, 4582, 4582, 4582, 4582, 4582, 4582, 4582, 4582, 4582, 4582, 4582, 4582, 4582, 4645, 4645, 4582, 4582, 4582, 4582, 4582, 4582, 4582, 4645, 4645, 4582, 4582, 4645, 4645, 4645, 4645, 4645, 4645, 4645, 4645, 4645, 4645, 4645, 4645, 4645, 4645, 4645, 4645, 4645, 4708, 4708, 4774, 4774, 4708, 4708, 4708, 4708, 4708, 4774, 4708, 4708, 4708, 4774, 4774, 4774, 4774, 4774, 4774, 4774, 4842, 4842, 4842, 4842, 4774, 4774, 4774, 4774, 4774, 4774, 4842, 4842, 4774, 4774, 4774, 4774, 4774, 4842, 4842, 4842, 4842, 4842, 4842, 4842, 4774, 4774, 4774, 4708, 4708, 4774, 4774, 4774, 4774, 4774, 4842, 4842, 4842, 4842, 4911, 4911, 4842, 4842, 4842, 4842, 4842, 4842, 4842, 4774, 4774, 4842, 4774, 4774, 4774, 4774, 4774, 4774, 4911, 4911, 4911, 4911, 4911, 4842, 4842, 4842, 4774, 4774, 4774, 4708, 4708, 4774, 4774, 4842, 4774, 4774, 4774, 4774, 4774, 4842, 4842, 4842, 4842, 4983, 5056, 5132, 5210, 5291, 5374, 5374, 5374, 5374, 5374, 5374, 5291, 5291, 5291, 5210, 5210, 5210, 5210, 5291, 5291, 5291, 5291, 5291, 5291, 5291, 5291, 5210, 5210, 5210, 5210, 5210, 5210, 5210, 5291, 5291, 5210, 5210, 5210, 5210, 5132, 5056, 5056, 5056, 5056, 5056, 5056, 5056, 5132, 5132, 5132, 5132, 5132, 5132, 5132, 5132, 5132, 5132, 5132, 5132, 5132, 5132, 5132, 5132, 5132, 5132, 5132, 5132, 5132, 5132, 5132, 5132, 5132, 5132, 5132, 5056, 5056, 5056, 5056, 5056, 5056, 5056, 5056, 5056, 5056, 5056, 5056, 5056, 5056, 5056, 5056, 5056, 5056, 4983, 4983, 4983, 4983, 4911, 4842, 4842, 4842, 4842, 4842, 4774, 4774, 4774, 4774, 4842, 4708, 4645, 3365, 3365, 3365, 3365, 3365, 4463, 4405, 4405, 4405, 4405, 4349, 4349, 4349, 4295, 4295, 4295, 4295, 4295, 4295, 4295, 4295, 4295, 4295, 4295, 4295, 4241, 4241, 4241, 4241, 4190, 4190, 4190, 4190, 4190, 4241, 4241, 4241, 4241, 4241, 4241, 4190, 4190, 4190, 4190, 4190, 4190, 4190, 4190, 4190
0, 0, 0, 3903, 3903, 3903, 3903, 3903, 3903, 3903, 3903, 3903, 3948, 3948, 3994, 3994, 3994, 3948, 3948, 3948, 3948, 3948, 3948, 3948, 3948, 3948, 3948, 3903, 3903, 3903, 3903, 3948, 3948, 3948, 3948, 3948, 3948, 3948, 3948, 3948, 3948, 3948, 3948, 3948, 3948, 3948, 3948, 3948, 3948, 3948, 3948, 3948, 3948, 3948, 3948, 3948, 3903, 3903, 3948, 3994, 3994, 4041, 4041, 4041, 3994, 3994, 3994, 3994, 4041, 4041, 4041, 4089, 4089, 4139, 4139, 4139, 4139, 4139, 4089, 4089, 4041, 4041, 3994, 3994, 4041, 4041, 4041, 4041, 4041, 4041, 4041, 4041, 4041, 4041, 4041, 4041, 4041, 4041, 4041, 4089, 4089, 4089, 4089, 4089, 4089, 4041, 4041, 4041, 4041, 4041, 4041, 4041, 4041, 4041, 4041, 4089, 4041, 4041, 4041, 4041, 4041, 4041, 4041, 4041, 4041, 4041, 4089, 4139, 4139, 4139, 4190, 4190, 4139, 4139, 4190, 4190, 4190, 4139, 4139, 4190, 4190, 4190, 4190, 4190, 4139, 4139, 4089, 4089, 4139, 4139, 4139, 4139, 4139, 4139, 4190, 4190, 4190, 4190, 4241, 4241, 4241, 4463, 4463, 4463, 4522, 4582, 4582, 4582, 4645, 4645, 4645, 4582, 4582, 4582, 4582, 4522, 4522, 4522, 4522, 4522, 4522, 4522, 4522, 4522, 4522, 4522, 4522, 4582, 4582, 4582, 4582, 4582, 4582, 4582, 4582, 4582, 4582, 4582, 4582, 4582, 4582, 4582, 4582, 4582, 4582, 4582, 4582, 4582, 4582, 4582, 4582, 4582, 4522, 4522, 4522, 4522, 4522, 4582, 4582, 4582, 4582, 4582, 4522, 4522, 4522, 4522, 4522, 4582, 4582, 4582, 4582, 4582, 4582, 4582, 4582, 4582, 4582, 4522, 4522, 4582, 4582, 4582, 4582, 4582, 4582, 4582, 4582, 4645, 4645, 4645, 4645, 4582, 4582, 4645, 4582, 4582, 4645, 4645, 4582, 4582, 4645, 4645, 4645, 4645, 4645, 4645, 4645, 4645, 4645, 4645, 4645, 4645, 4645, 4645, 4645, 4645, 4645, 4708, 4708, 4774, 4774, 4708, 4708, 4708, 4708, 4708, 4774, 4708, 4708, 4708, 4708, 4774, 4774, 4774, 4774, 4842, 4842, 4842, 4842, 4842, 4774, 4774, 4774, 4774, 4774, 4774, 4774, 4842, 4842, 4774, 4774, 4774, 4774, 4842, 4842, 4842, 4842, 4842, 4842, 4842, 4842, 4774, 4774, 4774, 4708, 4708, 4774, 4774, 4774, 4774, 4774, 4842, 4842, 4842, 4911, 4911, 4911, 4842, 4842, 4842, 4911, 4842, 4842, 4842, 4842, 4842, 4842, 4774, 4774, 4774, 4774, 4774, 4774, 4911, 4911, 4911, 4911, 4911, 4842, 4842, 4842, 4774, 4774, 4708, 4708, 4708, 4774, 4774, 4774, 4774, 4774, 4774, 4774, 4774, 4842, 4842, 4842, 4842, 4983, 5056, 5056, 5210, 5210, 5210, 5374, 5374, 5374, 5374, 5374, 5291, 5291, 5291, 5291, 5210, 5210, 5291, 5291, 5291, 5291, 5291, 5291, 5291, 5291, 5291, 5210, 5210, 5210, 5210, 5210, 5210, 5210, 5291, 5291, 5210, 5210, 5291, 5210, 5210, 5132, 5132, 5132, 5132, 5056, 5056, 5056, 5132, 5132, 5132, 5132, 5132, 5132, 5132, 5132, 5132, 5132, 5132, 5132, 5132, 5132, 5132, 5132, 5132, 5132, 5132, 5132, 5132, 5132, 5132, 5132, 5132, 5132, 5132, 5056, 5056, 5056, 5056, 5056, 5056, 5056, 5056, 5056, 5056, 5056, 5056, 5056, 5056, 4983, 4983, 4983, 4983, 4983, 4983, 4983, 4983, 4983, 4911, 4842, 4842, 4842, 4842, 4774, 4774, 3333, 3300, 3300, 3300, 3300, 3333, 3333, 3333, 3333, 3365, 3365, 3365, 4405, 4405, 4405, 4405, 4405, 4349, 4349, 4349, 4349, 4295, 4295, 4295, 4295, 4295, 4295, 4295, 4295, 4349, 4295, 4295, 4295, 4241, 4190, 4190, 4190, 4190, 4190, 4241, 4241, 4241, 4241, 4241, 4241, 4190, 4190, 4190, 4190, 4190, 4190, 4190, 4190, 4190
0, 0, 0, 3903, 3903, 3903, 3903, 3903, 3948, 3948, 3948, 3948, 3948, 3948, 3994, 3994, 3994, 3948, 3948, 3948, 3948, 3948, 3948, 3903, 3903, 3948, 3948, 3903, 3903, 3948, 3948, 3948, 3948, 3948, 3948, 3948, 3948, 3948, 3948, 3948, 3948, 3948, 3948, 3948, 3948, 3948, 3903, 3903, 3903, 3948, 3948, 3948, 3948, 3948, 3948, 3948, 3948, 3948, 3994, 3994, 3994, 4041, 4041, 4041, 3994, 3994, 3994, 3994, 4041, 4041, 4041, 4041, 4089, 4139, 4139, 4139, 4139, 4139, 4089, 4089, 4041, 4041, 3994, 3994, 3994, 3994, 3994, 3994, 4041, 4041, 4041, 4041, 4041, 4041, 4041, 4041, 4041, 4041, 4041, 4089, 4089, 4089, 4089, 4089, 4089, 4041, 4041, 4041, 4041, 4041, 4041, 4041, 4041, 4041, 4041, 4089, 4089, 4089, 4089, 4041, 4041, 4089, 4089, 4089, 4089, 4089, 4089, 4139, 4190, 4190, 4190, 4190, 4190, 4190, 4190, 4190, 4190, 4190, 4190, 4190, 4241, 4241, 4190, 4190, 4190, 4139, 4139, 4139, 4139, 4139, 4139, 4139, 4139, 4139, 4139, 4139, 4139, 4190, 4190, 4522, 4463, 4463, 4463, 4522, 4582, 4582, 4582, 4582, 4582, 4582, 4582, 4582, 4582, 4582, 4522, 4522, 4522, 4522, 4522, 4522, 4522, 4522, 4522, 4522, 4522, 4522, 4522, 4582, 4582, 4582, 4582, 4582, 4582, 4582, 4582, 4582, 4582, 4582, 4582, 4582, 4582, 4582, 4582, 4582, 4582, 4582, 4582, 4582, 4582, 4582, 4582, 4582, 4522, 4522, 4522, 4522, 4522, 4522, 4522, 4522, 4522, 4522, 4582, 4582, 4582, 4582, 4582, 4582, 4582, 4582, 4582, 4582, 4582, 4582, 4582, 4582, 4582, 4522, 4522, 4582, 4582, 4582, 4582, 4582, 4582, 4582, 4582, 4645, 4645, 4645, 4645, 4645, 4645, 4645, 4582, 4582, 4645, 4645, 4582, 4582, 4645, 4645, 4645, 4645, 4645, 4645, 4645, 4645, 4582, 4582, 4582, 4582, 4645, 4645, 4645, 4645, 4645, 4708, 4708, 4774, 4774, 4774, 4708, 4708, 4708, 4708, 4708, 4708, 4708, 4708, 4708, 4708, 4774, 4774, 4774, 4842, 4842, 4842, 4842, 4842, 4774, 4774, 4774, 4774, 4774, 4774, 4774, 4842, 4842, 4774, 4774, 4774, 4774, 4842, 4842, 4842, 4842, 4842, 4842, 4842, 4774, 4774, 4774, 4774, 4774, 4708, 4708, 4774, 4774, 4842, 4842, 4842, 4842, 4911, 4911, 4911, 4911, 4842, 4842, 4842, 4911, 4842, 4842, 4842, 4842, 4842, 4842, 4774, 4774, 4774, 4774, 4774, 4774, 4911, 4911, 4911, 4911, 4911, 4842, 4842, 4774, 4774, 4774, 4708, 4708, 4708, 4774, 4774, 4774, 4774, 4774, 4774, 4842, 4842, 4842, 4842, 4842, 4842, 4983, 5056, 5056, 5056, 5132, 0, 0, 5374, 5374, 5374, 5374, 5291, 5291, 5291, 5291, 5291, 5291, 5291, 5291, 5291, 5291, 5291, 5291, 5291, 5291, 5210, 5210, 5210, 5210, 5210, 5210, 5210, 5210, 5291, 5291, 5210, 5210, 5291, 5210, 5210, 5132, 5132, 5132, 5132, 5132, 5056, 5056, 5132, 5132, 5132, 5132, 5132, 5132, 5132, 5132, 5132, 5132, 5132, 5132, 5132, 5132, 5132, 5132, 5132, 5132, 5132, 5132, 5132, 5132, 5132, 5132, 5132, 5132, 5132, 5056, 5056, 5056, 5056, 5056, 5056, 5056, 5056, 5056, 5056, 5056, 5056, 5056, 4983, 4983, 4983, 4983, 4983, 4983, 4983, 4983, 4983, 4983, 4911, 3433, 3399, 3365, 3333, 3300, 3300, 3300, 3300, 3300, 3300, 3300, 3333, 3333, 3333, 3333, 3333, 3333, 3333, 3333, 3333, 3333, 4405, 4405, 3269, 3269, 4349, 4349, 4295, 4295, 4295, 4295, 4295, 4295, 4295, 4295, 4295, 4295, 4295, 4295, 4295, 3300, 3300, 3238, 4241, 4241, 4241, 4241, 4241, 4241, 4295, 3300, 3269, 3269, 3269, 3269, 4190, 4190, 4190, 4190, 4190
0, 0, 0, 3903, 3903, 3903, 3903, 3903, 3903, 3994, 3994, 3994, 3948, 3948, 3994, 3994, 3948, 3948, 3948, 3948, 3948, 3903, 3903, 3903, 3903, 3948, 3948, 3903, 3903, 3948, 3948, 3948, 3948, 3948, 3948, 3948, 3948, 3948, 3948, 3948, 3948, 3948, 3948, 3948, 3948, 3903, 3903, 3903, 3903, 3948, 3948, 3948, 3948, 3948, 3948, 3948, 3948, 3948, 3994, 3994, 3994, 4041, 4041, 4041, 4041, 3994, 3994, 4041, 4041, 4041, 4041, 4041, 4089, 4089, 4139, 4089, 4089, 4089, 4089, 4089, 4041, 4041, 3994, 3994, 3994, 3994, 3994, 3994, 4041, 4041, 4041, 4041, 4041, 4041, 4041, 4041, 4041, 4041, 4041, 4041, 4089, 4089, 4089, 4089, 4089, 4041, 4041, 4041, 4041, 4041, 4041, 4041, 4041, 4041, 4041, 4089, 4089, 4089, 4089, 4089, 4089, 4089, 4089, 4089, 4089, 4089, 4089, 4139, 4190, 4190, 4190, 4190, 4190, 4139, 4139, 4139, 4190, 4190, 4190, 4190, 4190, 4190, 4190, 4190, 4190, 4139, 4089, 4089, 4089, 4089, 4089, 4089, 4089, 4089, 4089, 4089, 4089, 4139, 4139, 4522, 4522, 4522, 4522, 4522, 4582, 4582, 4582, 4582, 4582, 4582, 4582, 4582, 4582, 4582, 4522, 4522, 4522, 4522, 4522, 4522, 4522, 4522, 4522, 4522, 4522, 4522, 4522, 4582, 4582, 4582, 4582, 4582, 4582, 4582, 4582, 4582, 4582, 4582, 4582, 4582, 4582, 4582, 4582, 4582, 4582, 4582, 4582, 4582, 4582, 4582, 4582, 4582, 4582, 4582, 4582, 4582, 4582, 4522, 4522, 4522, 4522, 4522, 4582, 4582, 4582, 4582, 4582, 4582, 4582, 4582, 4582, 4582, 4582, 4582, 4582, 4582, 4582, 4522, 4522, 4582, 4582, 4582, 4582, 4582, 4645, 4582, 4582, 4645, 4645, 4645, 4645, 4645, 4645, 4645, 4645, 4645, 4645, 4645, 4645, 4645, 4645, 4645, 4645, 4645, 4645, 4645, 4645, 4645, 4582, 4582, 4582, 4582, 4582, 4645, 4645, 4645, 4645, 4774, 4774, 4774, 4774, 4708, 4708, 4708, 4708, 4708, 4708, 4708, 4708, 4708, 4708, 4708, 4774, 4774, 4774, 4842, 4842, 4842, 4842, 4842, 4842, 4842, 4842, 4774, 4774, 4774, 4774, 4842, 4842, 4774, 4774, 4774, 4774, 4911, 4842, 4842, 4842, 4842, 4842, 4842, 4774, 4774, 4708, 4708, 4774, 4708, 4708, 4774, 4774, 4842, 4842, 4842, 4911, 4911, 4911, 4911, 4911, 4842, 4842, 4842, 4911, 4842, 4842, 4911, 4842, 4842, 4842, 4774, 4774, 4774, 4774, 4774, 4774, 4911, 4911, 4911, 4911, 4911, 4842, 4842, 4774, 4774, 4774, 4708, 4708, 4708, 4774, 4774, 4774, 4774, 4774, 4774, 4842, 4842, 4842, 4842, 4842, 4842, 4983, 4983, 5056, 5132, 5132, 5374, 5374, 5374, 0, 5374, 5374, 5291, 5291, 5291, 5291, 5291, 5291, 5291, 5374, 5374, 5374, 5291, 5291, 5291, 5291, 5210, 5210, 5210, 5210, 5210, 5210, 5210, 5291, 5291, 5291, 5210, 5210, 5291, 5291, 5210, 5132, 5132, 5132, 5132, 5056, 5056, 5056, 5132, 5132, 5132, 5132, 5132, 5132, 5132, 5132, 5132, 5132, 5132, 5132, 5132, 5132, 5132, 5132, 5132, 5132, 5132, 5132, 5132, 5132, 5132, 5132, 5132, 5132, 5132, 5132, 5132, 5132, 5056, 5056, 5056, 5056, 5056, 5056, 5056, 5056, 5056, 4983, 4983, 4983, 4983, 4983, 4983, 5056, 5056, 5056, 5056, 5056, 3399, 3365, 3333, 3333, 3300, 3300, 3300, 3300, 3300, 3300, 3300, 3300, 3333, 3333, 3333, 3333, 3333, 3333, 3333, 3333, 3333, 3300, 3300, 3300, 3269, 3269, 3300, 3300, 3300, 4349, 4295, 4295, 4295, 4295, 4295, 4295, 4295, 4295, 4295, 3300, 3300, 0, 0, 0, 3238, 3238, 3238, 3238, 3238, 3208, 3208, 3238, 3238, 3238, 3269, 3238, 3238, 4190, 4190, 4190, 4190
0, 0, 0, 3903, 3903, 3903, 3903, 3903, 3903, 3994, 3994, 3994, 3948, 3948, 3994, 3948, 3948, 3948, 3948, 3948, 3948, 3903, 3903, 3903, 3903, 3948, 3948, 3948, 3948, 3948, 3948, 3948, 3948, 3948, 3948, 3948, 3948, 3948, 3948, 3948, 3948, 3948, 3948, 3948, 3948, 3903, 3903, 3948, 3948, 3948, 3948, 3994, 3994, 3948, 3948, 3948, 3948, 3948, 3994, 3994, 4041, 4041, 4041, 4041, 4041, 4041, 4041, 4041, 4041, 4041, 4041, 4041, 4089, 4089, 4139, 4089, 4089, 4089, 4089, 4089, 4041, 4041, 3994, 3994, 3994, 3994, 3994, 3994, 4041, 4041, 4041, 4041, 4041, 4041, 4041, 4041, 4041, 4041, 4041, 4041, 4089, 4041, 4041, 4041, 4089, 4041, 4041, 4041, 4041, 4041, 4041, 4041, 4041, 4041, 4089, 4089, 4089, 4089, 4089, 4089, 4089, 4089, 4089, 4089, 4041, 4041, 4089, 4139, 4139, 4139, 4139, 4139, 4190, 4139, 4139, 4139, 4139, 4139, 4190, 4190, 4190, 4190, 4190, 4190, 4190, 4139, 4089, 4089, 4089, 4089, 4089, 4089, 4089, 4089, 4089, 4089, 4089, 4139, 4241, 4463, 4522, 4522, 4522, 4522, 4582, 4582, 4582, 4582, 4582, 4582, 4582, 4582, 4582, 4582, 4522, 4522, 4522, 4582, 4582, 4522, 4522, 4522, 4522, 4522, 4522, 4522, 4522, 4645, 4582, 4582, 4582, 4582, 4582, 4582, 4582, 4582, 4582, 4582, 4582, 4582, 4582, 4582, 4582, 4582, 4582, 4582, 4582, 4582, 4582, 4582, 4582, 4582, 4582, 4582, 4582, 4582, 4582, 4522, 4522, 4582, 4582, 4582, 4582, 4582, 4582, 4582, 4582, 4582, 4582, 4582, 4582, 4582, 4582, 4582, 4582, 4582, 4582, 4522, 4522, 4582, 4582, 4582, 4582, 4582, 4582, 4582, 4582, 4645, 4645, 4645, 4645, 4645, 4645, 4645, 4645, 4645, 4645, 4645, 4645, 4645, 4645, 4645, 4645, 4645, 4645, 4645, 4645, 4645, 4645, 4582, 4582, 4582, 4582, 4645, 4645, 4645, 4645, 4708, 4708, 4708, 4774, 4708, 4708, 4708, 4708, 4708, 4708, 4708, 4708, 4708, 4708, 4708, 4774, 4774, 4774, 4774, 4842, 4842, 4842, 4842, 4842, 4842, 4842, 4774, 4774, 4774, 4774, 4842, 4842, 4774, 4774, 4774, 4774, 4911, 4842, 4842, 4842, 4774, 4774, 4774, 4774, 4774, 4708, 4708, 4774, 4774, 4774, 4842, 4842, 4842, 4842, 4842, 4911, 4842, 4842, 4842, 4842, 4842, 4842, 4842, 4911, 4842, 4842, 4911, 4842, 4842, 4842, 4774, 4774, 4774, 4842, 4842, 4842, 4842, 4911, 4911, 4911, 4911, 4842, 4842, 4842, 4842, 4842, 4774, 4774, 4774, 4774, 4774, 4774, 4774, 4774, 4774, 4842, 4842, 4842, 4842, 4842, 4842, 4983, 4983, 5056, 5056, 5056, 5374, 5374, 5374, 5374, 5374, 5374, 5374, 5291, 5291, 5291, 5291, 5291, 5374, 5374, 5374, 5374, 5374, 5291, 5291, 5291, 5210, 5210, 5210, 5210, 5210, 5210, 5210, 5210, 5210, 5132, 5132, 5132, 5132, 5210, 5210, 5132, 5132, 5132, 5132, 5056, 5056, 5056, 5132, 5132, 5132, 5210, 5210, 5210, 5210, 5132, 5132, 5132, 5132, 5132, 5132, 5132, 5132, 5132, 5132, 5132, 5132, 5132, 5132, 5132, 5132, 5132, 5132, 5132, 5132, 5132, 5132, 5132, 5056, 5056, 5056, 5056, 5056, 5056, 5056, 5056, 5056, 4983, 4983, 4983, 4983, 4983, 5056, 5056, 5056, 5056, 5056, 5056, 3399, 3333, 3333, 3333, 3300, 3300, 3300, 3300, 3300, 3300, 3300, 3300, 3333, 3333, 3333, 3333, 3333, 3333, 3333, 3333, 3300, 3300, 3300, 3300, 3300, 3300, 3300, 3300, 3300, 3300, 3300, 3300, 3300, 3269, 3269, 3269, 3269, 3300, 3300, 3300, 3300, 3333, 3300, 3300, 3238, 3238, 3238, 3238, 3238, 3208, 3208, 3238, 3238, 3238, 3269, 3238, 3238, 3238, 3269, 3238, 3238
0, 0, 0, 3903, 3903, 3903, 3903, 3903, 3903, 3994, 4041, 3994, 3948, 3948, 3948, 3948, 3948, 3948, 3948, 3948, 3948, 3948, 3948, 3948, 3948, 3903, 3903, 3948, 3948, 3948, 3948, 3948, 3948, 3948, 3948, 3948, 3948, 3948, 3948, 3948, 3994, 3994, 3948, 3948, 3948, 3948, 3948, 3948, 3948, 3994, 3994, 3994, 3994, 3994, 3948, 3948, 3948, 3948, 3994, 3994, 3994, 4041, 4041, 4041, 4041, 4041, 3994, 3994, 4041, 4041, 4041, 4041, 4041, 4041, 4089, 4139, 4089, 4089, 4089, 4089, 4041, 4041, 3994, 3994, 3994, 3994, 3994, 3994, 3994, 4041, 4041, 4041, 4041, 4041, 4041, 4041, 4041, 4041, 4041, 4041, 4089, 4041, 4041, 4041, 4089, 4041, 4041, 4041, 4041, 4041, 4041, 4041, 4041, 4041, 4089, 4089, 4089, 4139, 4089, 4089, 4089, 4089, 4089, 4089, 4041, 4041, 4089, 4089, 4139, 4139, 4139, 4139, 4139, 4139, 4139, 4139, 4139, 4139, 4190, 4190, 4190, 4190, 4190, 4190, 4190, 4089, 4089, 4089, 4089, 4089, 4089, 4089, 4089, 4089, 4089, 4089, 4139, 4241, 4241, 4463, 4522, 4582, 4522, 4522, 4582, 4582, 4582, 4582, 4582, 4582, 4582, 4582, 4582, 4522, 4522, 4522, 4522, 4582, 4582, 4522, 4522, 4522, 4582, 4522, 4522, 4522, 4522, 4645, 4582, 4582, 4582, 4582, 4582, 4582, 4582, 4582, 4582, 4582, 4582, 4582, 4582, 4582, 4582, 4582, 4582, 4582, 4582, 4582, 4582, 4582, 4582, 4582, 4582, 4582, 4522, 4522, 4582, 4522, 4522, 4582, 4582, 4582, 4582, 4582, 4582, 4582, 4582, 4582, 4582, 4582, 4582, 4582, 4582, 4582, 4582, 4582, 4582, 4582, 4582, 4582, 4582, 4582, 4582, 4582, 4582, 4582, 4582, 4645, 4645, 4645, 4645, 4645, 4645, 4645, 4645, 4645, 4645, 4645, 4645, 4645, 4645, 4645, 4582, 4582, 4582, 4645, 4645, 4645, 4645, 4582, 4582, 4645, 4645, 4645, 4645, 4645, 4645, 4645, 4645, 4708, 4708, 4774, 4708, 4708, 4708, 4708, 4708, 4708, 4708, 4708, 4708, 4708, 4774, 4774, 4774, 4774, 4774, 4842, 4842, 4842, 4842, 4842, 4774, 4774, 4774, 4774, 4774, 4842, 4842, 4842, 4842, 4842, 4842, 4911, 4842, 4842, 4842, 4774, 4774, 4774, 4774, 4774, 4708, 4708, 4774, 4774, 4774, 4774, 4842, 4842, 4842, 4842, 4911, 4842, 4842, 4842, 4842, 4842, 4842, 4842, 4911, 4842, 4842, 4911, 4842, 4842, 4842, 4842, 4774, 4774, 4842, 4842, 4842, 4842, 4911, 4911, 4842, 4842, 4842, 4774, 4774, 4774, 4774, 4774, 4708, 4708, 4774, 4774, 4842, 4774, 4774, 4774, 4842, 4842, 4774, 4774, 4774, 4842, 4911, 4983, 4983, 5056, 5056, 5374, 5374, 5374, 5374, 5460, 5374, 5374, 5374, 5291, 5291, 5291, 5291, 5374, 5374, 5374, 5374, 5374, 5291, 5291, 5291, 5210, 5210, 5210, 5210, 5210, 5210, 5210, 5132, 5132, 5132, 5132, 5056, 5056, 5210, 5132, 5132, 5132, 5132, 5132, 5132, 5056, 5056, 5132, 5210, 5210, 5210, 5132, 5132, 5132, 5132, 5132, 5132, 5132, 5132, 5132, 5132, 5132, 5132, 5132, 5132, 5132, 5132, 5132, 5132, 5132, 5132, 5132, 5056, 5056, 5132, 5132, 5132, 5132, 5132, 5056, 5056, 5056, 5056, 5056, 5056, 5056, 4983, 4983, 4983, 4983, 4983, 4983, 4983, 5056, 5056, 5056, 5056, 5056, 3333, 3333, 3333, 3300, 3300, 3300, 3300, 3333, 3333, 3333, 3333, 3333, 3333, 3333, 3333, 3333, 3333, 3333, 3333, 3300, 3300, 3300, 3300, 3300, 3300, 3300, 3300, 3300, 3300, 3300, 3300, 3300, 3269, 3269, 3269, 3269, 3300, 3300, 3300, 3300, 3333, 3300, 3300, 3269, 3238, 3238, 3238, 3238, 3238, 3238, 3238, 3238, 3238, 3238, 3238, 3238, 3238, 3269, 3269, 3238
0, 0, 0, 3903, 3903, 3903, 3903, 3903, 3948, 4041, 4041, 3994, 3994, 3948, 3948, 3948, 3948, 3948, 3948, 3948, 3948, 3948, 3948, 3948, 3948, 3903, 3903, 3948, 3948, 3948, 3948, 3948, 3948, 3948, 3948, 3948, 3948, 3948, 3948, 3994, 3994, 3994, 3994, 3994, 3994, 3948, 3948, 3948, 3948, 3994, 3994, 3994, 3994, 3994, 3948, 3948, 3948, 3948, 3994, 3994, 3994, 4041, 4041, 4041, 4041, 4041, 3994, 3994, 4041, 4041, 4041, 4041, 4041, 4041, 4089, 4139, 4139, 4139, 4089, 4089, 4041, 4041, 4041, 4041, 3994, 3994, 3994, 3994, 3994, 4041, 4041, 4041, 4041, 4041, 4041, 4041, 4041, 4041, 4041, 4041, 4089, 4089, 4089, 4089, 4089, 4089, 4041, 4041, 4089, 4089, 4089, 4089, 4041, 4041, 4089, 4089, 4139, 4139, 4139, 4139, 4089, 4089, 4089, 4089, 4089, 4089, 4089, 4089, 4139, 4139, 4139, 4139, 4139, 4139, 4139, 4139, 4139, 4139, 4139, 4139, 4139, 4139, 4190, 4139, 4139, 4089, 4089, 4089, 4089, 4089, 4089, 4089, 4089, 4089, 4089, 4089, 4139, 4241, 4241, 4463, 4522, 4582, 4582, 4582, 4582, 4582, 4582, 4582, 4582, 4582, 4582, 4582, 4522, 4522, 4522, 4522, 4522, 4582, 4582, 4582, 4582, 4582, 4582, 4522, 4522, 4522, 4522, 4582, 4582, 4582, 4582, 4582, 4582, 4582, 4582, 4582, 4582, 4582, 4582, 4582, 4582, 4582, 4582, 4582, 4582, 4582, 4582, 4582, 4582, 4582, 4582, 4582, 4582, 4582, 4522, 4522, 4582, 4582, 4582, 4582, 4582, 4582, 4582, 4582, 4582, 4582, 4582, 4582, 4582, 4582, 4582, 4582, 4582, 4582, 4582, 4582, 4582, 4582, 4582, 4582, 4582, 4582, 4582, 4582, 4582, 4582, 4582, 4645, 4645, 4645, 4645, 4645, 4645, 4645, 4645, 4645, 4645, 4645, 4645, 4582, 4582, 4582, 4582, 4582, 4582, 4582, 4582, 4582, 4582, 4582, 4582, 4645, 4645, 4645, 4645, 4645, 4645, 4645, 4645, 4708, 4708, 4774, 4774, 4708, 4708, 4708, 4708, 4708, 4708, 4708, 4708, 4708, 4774, 4774, 4774, 4774, 4774, 4842, 4842, 4842, 4842, 4842, 4774, 4774, 4774, 4774, 4774, 4842, 4842, 4842, 4842, 4842, 4842, 4842, 4842, 4842, 4842, 4774, 4774, 4774, 4774, 4774, 4774, 4774, 4774, 4774, 4774, 4774, 4774, 4842, 4842, 4842, 4911, 4842, 4842, 4842, 4911, 4911, 4911, 4911, 4911, 4911, 4911, 4911, 4842, 4842, 4842, 4842, 4774, 4774, 4842, 4842, 4842, 4842, 4911, 4911, 4842, 4842, 4842, 4774, 4774, 4774, 4774, 4774, 4708, 4708, 4774, 4774, 4774, 4774, 4774, 4774, 4842, 4842, 4774, 4774, 4774, 4774, 4842, 4911, 4983, 5056, 5056, 5374, 5374, 5374, 5374, 5374, 5374, 5291, 5291, 5291, 5291, 5374, 5374, 5374, 5374, 5374, 5374, 5291, 5291, 5291, 5291, 5210, 5210, 5210, 5210, 5210, 5210, 5210, 5132, 5132, 5132, 5132, 5056, 5056, 5210, 5132, 5132, 5132, 5132, 5132, 5132, 5132, 5132, 5210, 5132, 5132, 5210, 5132, 5132, 5132, 5132, 5132, 5132, 5132, 5132, 5132, 5132, 5132, 5210, 5132, 5132, 5132, 5132, 5132, 5132, 5132, 5056, 5056, 5056, 5056, 5132, 5132, 5132, 5132, 5132, 5132, 5132, 5056, 5056, 5056, 5056, 5056, 4983, 4983, 4983, 4983, 4983, 4983, 4983, 5056, 4983, 4983, 4983, 4983, 3333, 3333, 3333, 3300, 3300, 3300, 3300, 3333, 3333, 3333, 3333, 3333, 3333, 3333, 3333, 3333, 3333, 3333, 3333, 3333, 3333, 3333, 3300, 3300, 3300, 3300, 3300, 3300, 3300, 3300, 3300, 3300, 3269, 3269, 3269, 3269, 3300, 3269, 3269, 3300, 3300, 3269, 3269, 3269, 3269, 3238, 3238, 3238, 3238, 3238, 3238, 3238, 3238, 3238, 3238, 3238, 3238, 3238, 3269, 3238
0, 0, 0, 0, 3903, 3903, 3948, 3948, 3948, 4041, 4041, 3994, 3994, 3994, 3994, 3994, 3994, 3948, 3948, 3948, 3948, 3948, 3948, 3948, 3948, 3948, 3948, 3948, 3948, 3948, 3948, 3903, 3903, 3948, 3948, 3948, 3948, 3948, 3948, 3994, 3994, 3994, 3994, 3994, 3994, 3994, 3994, 3948, 3948, 3994, 3994, 3994, 3994, 3994, 3994, 3994, 3994, 3994, 3994, 3994, 3994, 4041, 4041, 4089, 4089, 4041, 4041, 4041, 4041, 4041, 4041, 4041, 4041, 4089, 4089, 4089, 4089, 4139, 4139, 4089, 4041, 4041, 4041, 4041, 4041, 4041, 3994, 3994, 4041, 4041, 4041, 4041, 4041, 4041, 4089, 4089, 4041, 4041, 4041, 4041, 4089, 4089, 4089, 4089, 4089, 4089, 4089, 4089, 4089, 4089, 4089, 4041, 4041, 4041, 4089, 4089, 4089, 4139, 4139, 4139, 4089, 4089, 4089, 4089, 4089, 4089, 4041, 4041, 4139, 4139, 4139, 4139, 4139, 4139, 4139, 4139, 4139, 4139, 4139, 4139, 4139, 4139, 4139, 4089, 4089, 4089, 4089, 4089, 4089, 4089, 4089, 4089, 4089, 4089, 4089, 4089, 4139, 4241, 4241, 4463, 4522, 4582, 4522, 4522, 4582, 4582, 4582, 4582, 4582, 4582, 4582, 4582, 4522, 4522, 4522, 4522, 4522, 4582, 4582, 4582, 4582, 4582, 4582, 4582, 4582, 4522, 4522, 4582, 4582, 4582, 4582, 4582, 4582, 4582, 4582, 4582, 4582, 4582, 4582, 4645, 4645, 4645, 4582, 4582, 4582, 4582, 4582, 4582, 4582, 4582, 4582, 4582, 4582, 4582, 4582, 4582, 4582, 4582, 4582, 4582, 4582, 4582, 4582, 4582, 4582, 4582, 4582, 4582, 4582, 4645, 4582, 4582, 4582, 4582, 4582, 4582, 4582, 4582, 4582, 4582, 4582, 4582, 4582, 4582, 4582, 4582, 4582, 4645, 4645, 4645, 4645, 4645, 4645, 4645, 4645, 4645, 4645, 4645, 4645, 4582, 4582, 4582, 4582, 4582, 4582, 4582, 4582, 4582, 4582, 4582, 4582, 4645, 4645, 4645, 4645, 4645, 4645, 4645, 4645, 4645, 4708, 4708, 4708, 4774, 4708, 4708, 4708, 4708, 4774, 4708, 4708, 4708, 4774, 4774, 4774, 4842, 4842, 4842, 4842, 4842, 4842, 4842, 4774, 4774, 4774, 4774, 4774, 4842, 4842, 4842, 4842, 4842, 4842, 4842, 4842, 4842, 4842, 4842, 4774, 4774, 4774, 4774, 4774, 4774, 4774, 4774, 4774, 4774, 4774, 4842, 4842, 4842, 4842, 4842, 4842, 4911, 4911, 4911, 4911, 4911, 4911, 4911, 4842, 4842, 4842, 4842, 4842, 4774, 4774, 4774, 4842, 4842, 4842, 4842, 4842, 4842, 4842, 4842, 4842, 4774, 4774, 4774, 4774, 4774, 4708, 4708, 4774, 4774, 4774, 4774, 4774, 4774, 4774, 4774, 4774, 4774, 4774, 4774, 4774, 4911, 4983, 5056, 5056, 5374, 5374, 5374, 5374, 5374, 5374, 5291, 5291, 5291, 5291, 5291, 5291, 5291, 5374, 5374, 5374, 5291, 5291, 5291, 5291, 5210, 5210, 5291, 5291, 5210, 5210, 5210, 5132, 5132, 5056, 5056, 5056, 5056, 5056, 5056, 5132, 5132, 5132, 5132, 5132, 5132, 5132, 5210, 5132, 5132, 5210, 5132, 5132, 5132, 5132, 5132, 5132, 5132, 5132, 5132, 5210, 5210, 5210, 5132, 5132, 5132, 5132, 5132, 5132, 5132, 5056, 5056, 5056, 5056, 5056, 5056, 5132, 5132, 5132, 5132, 5132, 5056, 5056, 5056, 5056, 5056, 5056, 5056, 4983, 4983, 4983, 4983, 4983, 5056, 4983, 4983, 4983, 3365, 3333, 3333, 3333, 3300, 3300, 3300, 3300, 3333, 3333, 3333, 3333, 3333, 3333, 3333, 3333, 3333, 3333, 3333, 3333, 3333, 3333, 3333, 3333, 3300, 3300, 3300, 3300, 3300, 3300, 3300, 3300, 3300, 3269, 3269, 3269, 3269, 3300, 3269, 3269, 3300, 3300, 3269, 3269, 3269, 3269, 3238, 3238, 3238, 3238, 3238, 3238, 3238, 3238, 3238, 3238, 3238, 3238, 3238, 3238, 3238
0, 0, 0, 0, 3903, 3903, 3903, 3903, 3903, 3994, 3994, 3994, 3994, 3994, 3994, 3994, 3994, 3948, 3948, 3948, 3948, 3948, 3948, 3948, 3948, 3948, 3948, 3948, 3948, 3948, 3948, 3903, 3903, 3948, 3948, 3948, 3948, 3948, 3948, 3994, 3994, 3994, 3994, 3994, 3994, 3994, 3994, 3948, 3948, 3994, 3994, 4041, 3994, 3994, 3994, 3994, 3994, 3994, 3994, 3994, 3994, 4041, 4041, 4089, 4089, 4089, 4041, 4041, 4041, 4041, 4041, 4041, 4041, 4041, 4089, 4041, 4041, 4089, 4089, 4089, 4041, 4041, 4041, 4041, 4041, 4041, 3994, 3994, 4041, 4041, 4041, 4041, 4089, 4089, 4089, 4089, 4089, 4089, 4089, 4089, 4089, 4089, 4089, 4089, 4089, 4089, 4089, 4089, 4089, 4089, 4089, 4041, 4041, 4041, 4089, 4089, 4089, 4089, 4139, 4139, 4089, 4089, 4089, 4089, 4089, 4089, 4041, 4041, 4089, 4089, 4089, 4089, 4139, 4139, 4139, 4139, 4139, 4139, 4139, 4139, 4139, 4139, 4139, 4089, 4089, 4089, 4089, 4089, 4089, 4089, 4089, 4089, 4089, 4089, 4089, 4089, 4139, 4241, 4295, 4463, 4522, 4522, 4522, 4522, 4522, 4582, 4582, 4582, 4582, 4582, 4582, 4582, 4582, 4582, 4582, 4582, 4582, 4582, 4582, 4582, 4582, 4582, 4582, 4582, 4582, 4522, 4522, 4582, 4582, 4582, 4582, 4582, 4582, 4582, 4582, 4582, 4582, 4582, 4582, 4645, 4645, 4645, 4645, 4582, 4582, 4582, 4582, 4582, 4582, 4582, 4582, 4582, 4582, 4582, 4582, 4582, 4582, 4582, 4582, 4582, 4582, 4582, 4582, 4582, 4582, 4582, 4582, 4582, 4582, 4645, 4582, 4582, 4582, 4582, 4582, 4582, 4582, 4582, 4582, 4582, 4582, 4582, 4582, 4582, 4582, 4582, 4582, 4708, 4645, 4645, 4645, 4645, 4645, 4645, 4645, 4645, 4645, 4645, 4645, 4645, 4645, 4645, 4645, 4582, 4582, 4582, 4582, 4582, 4645, 4645, 4645, 4645, 4645, 4645, 4645, 4645, 4645, 4645, 4645, 4645, 4708, 4708, 4708, 4774, 4774, 4774, 4708, 4708, 4774, 4708, 4708, 4708, 4774, 4774, 4774, 4842, 4842, 4842, 4842, 4842, 4842, 4842, 4774, 4774, 4774, 4774, 4774, 4842, 4842, 4842, 4842, 4842, 4842, 4842, 4842, 4842, 4842, 4842, 4774, 4774, 4774, 4774, 4774, 4842, 4842, 4842, 4774, 4774, 4774, 4774, 4774, 4774, 4774, 4774, 4842, 4842, 4911, 4911, 4911, 4911, 4911, 4842, 4842, 4842, 4774, 4774, 4842, 4774, 4774, 4774, 4842, 4842, 4842, 4842, 4842, 4842, 4842, 4842, 4842, 4774, 4774, 4774, 4774, 4774, 4708, 4708, 4774, 4774, 4774, 4774, 4774, 4774, 4774, 4774, 4774, 4774, 4774, 4774, 4774, 4983, 5056, 5056, 5056, 5291, 5291, 5374, 5291, 5291, 5291, 5291, 5291, 5291, 5291, 5291, 5291, 5291, 5374, 5374, 5291, 5291, 5291, 5291, 5291, 5291, 5291, 5291, 5291, 5210, 5210, 5132, 5132, 5132, 5056, 5056, 5056, 5056, 5056, 5056, 5056, 5132, 5132, 5132, 5132, 5132, 5132, 5210, 5132, 5132, 5210, 5132, 5132, 5132, 5210, 5132, 5132, 5132, 5132, 5132, 5132, 5210, 5210, 5132, 5132, 5132, 5132, 5132, 5132, 5132, 5132, 5132, 5056, 5056, 5056, 5056, 5056, 5056, 5056, 5132, 5132, 5056, 5056, 5056, 5056, 5056, 5056, 5056, 5056, 5056, 5056, 5056, 5056, 5056, 5056, 3365, 3365, 3365, 3333, 3333, 3333, 3300, 3300, 3300, 3300, 3333, 3333, 3333, 3333, 3333, 3365, 3365, 3365, 3333, 3333, 3333, 3333, 3333, 3333, 3333, 3333, 3333, 3300, 3300, 3333, 3333, 3300, 3300, 3300, 3300, 3300, 3300, 3300, 3300, 3300, 3269, 3269, 3300, 3300, 3269, 3269, 3269, 3269, 3238, 3238, 3238, 3238, 3238, 3238, 3238, 3238, 3238, 3238, 3238, 3269, 3269, 3238, 3238
0, 0, 0, 0, 3859, 3859, 3903, 3903, 3903, 3948, 3948, 3994, 3948, 3948, 3948, 3994, 3994, 3994, 3994, 3994, 3994, 3994, 3994, 3994, 3994, 3948, 3948, 3948, 3948, 3948, 3948, 3903, 3903, 3948, 3948, 3948, 3948, 3948, 3948, 3994, 3994, 3994, 3994, 3994, 3994, 3994, 3994, 3994, 3994, 3994, 3994, 4041, 4041, 3994, 3994, 3994, 3994, 3994, 3994, 3994, 3994, 4041, 4041, 4089, 4089, 4089, 4089, 4139, 4089, 4041, 4041, 4041, 4041, 4041, 4041, 4041, 4041, 4089, 4089, 4089, 4041, 4041, 4041, 4041, 4041, 4041, 4041, 4041, 4041, 4041, 4041, 4041, 4089, 4089, 4089, 4139, 4089, 4089, 4139, 4139, 4089, 4089, 4089, 4089, 4089, 4089, 4089, 4089, 4089, 4089, 4089, 4089, 4089, 4089, 4089, 4089, 4089, 4089, 4139, 4139, 4089, 4089, 4089, 4089, 4089, 4089, 4041, 4041, 4089, 4089, 4089, 4089, 4139, 4139, 4139, 4139, 4139, 4139, 4139, 4139, 4139, 4139, 4139, 4139, 4139, 4089, 4089, 4089, 4089, 4089, 4089, 4089, 4089, 4089, 4089, 4089, 4190, 4241, 4463, 4463, 4522, 4522, 4522, 4522, 4522, 4522, 4582, 4582, 4582, 4582, 4582, 4582, 4582, 4582, 4582, 4582, 4582, 4582, 4582, 4582, 4582, 4582, 4582, 4582, 4582, 4522, 4522, 4582, 4582, 4582, 4582, 4582, 4582, 4582, 4582, 4582, 4582, 4582, 4582, 4582, 4582, 4645, 4645, 4645, 4582, 4582, 4582, 4582, 4582, 4582, 4582, 4582, 4582, 4582, 4582, 4582, 4582, 4582, 4582, 4582, 4582, 4582, 4582, 4582, 4582, 4582, 4582, 4582, 4582, 4645, 4645, 4645, 4645, 4645, 4582, 4582, 4582, 4582, 4582, 4582, 4582, 4582, 4582, 4645, 4645, 4645, 4645, 4708, 4708, 4645, 4645, 4645, 4645, 4645, 4645, 4645, 4645, 4645, 4645, 4645, 4645, 4645, 4645, 4645, 4582, 4582, 4645, 4645, 4645, 4645, 4645, 4645, 4645, 4645, 4645, 4645, 4582, 4582, 4582, 4645, 4708, 4708, 4774, 4842, 4774, 4774, 4774, 4774, 4774, 4774, 4774, 4774, 4774, 4774, 4774, 4842, 4842, 4842, 4842, 4842, 4842, 4842, 4842, 4774, 4774, 4774, 4774, 4842, 4842, 4842, 4842, 4842, 4842, 4842, 4842, 4842, 4842, 4842, 4774, 4774, 4842, 4842, 4842, 4842, 4842, 4842, 4774, 4774, 4774, 4708, 4708, 4774, 4774, 4774, 4774, 4842, 4842, 4842, 4911, 4911, 4911, 4842, 4842, 4842, 4774, 4774, 4774, 4774, 4774, 4774, 4842, 4842, 4842, 4842, 4842, 4842, 4842, 4842, 4842, 4774, 4774, 4774, 4774, 4774, 4774, 4774, 4774, 4774, 4774, 4774, 4774, 4774, 4774, 4774, 4774, 4774, 4774, 4774, 4774, 5056, 5291, 5210, 5210, 5291, 5291, 5374, 5291, 5291, 5291, 5291, 5291, 5291, 5291, 5291, 5291, 5291, 5374, 5374, 5291, 5291, 5291, 5291, 5291, 5291, 5291, 5291, 5291, 5210, 5210, 5132, 5132, 5132, 5056, 5056, 5056, 5056, 5056, 5056, 5056, 5132, 5132, 5132, 5132, 5132, 5132, 5210, 5210, 5210, 5210, 5210, 5210, 5210, 5210, 5132, 5132, 5132, 5132, 5132, 5132, 5210, 5210, 5210, 5132, 5132, 5132, 5132, 5132, 5132, 5132, 5132, 5056, 5056, 5056, 5056, 5056, 5056, 5056, 5056, 5056, 5056, 5056, 5056, 5056, 5056, 5056, 5056, 5056, 5056, 5056, 4983, 4983, 5056, 5056, 3365, 3365, 3365, 3333, 3333, 3333, 3333, 3300, 3300, 3300, 3333, 3333, 3333, 3333, 3333, 3365, 3365, 3365, 3333, 3333, 3333, 3333, 3333, 3333, 3333, 3333, 3333, 3300, 3300, 3333, 3333, 3300, 3300, 3300, 3300, 3300, 3300, 3300, 3300, 3300, 3269, 3269, 3300, 3300, 3269, 3269, 3269, 3269, 3238, 3238, 3238, 3238, 3238, 3238, 3238, 3238, 3238, 3238, 3238, 3269, 3269, 3269, 3269
0, 0, 0, 0, 3859, 3859, 3903, 3903, 3903, 3948, 3948, 3994, 3948, 3948, 3948, 3948, 3948, 3948, 3994, 3994, 3994, 3994, 3994, 3994, 3994, 3994, 3994, 3948, 3948, 3948, 3948, 3903, 3903, 3948, 3948, 3948, 3948, 3948, 3948, 3994, 3994, 3994, 3994, 3994, 3994, 3994, 3994, 3994, 3994, 3994, 3994, 4041, 4041, 3994, 3994, 3994, 3994, 3994, 3994, 3994, 3994, 3994, 4041, 4041, 4041, 4041, 4041, 4041, 4139, 4041, 4041, 4041, 4041, 4041, 4041, 4041, 4041, 4089, 4089, 4089, 4089, 4089, 4089, 4089, 4089, 4089, 4089, 4089, 4041, 4041, 4041, 4089, 4089, 4089, 4089, 4139, 4139, 4139, 4139, 4139, 4089, 4089, 4089, 4089, 4089, 4089, 4089, 4089, 4089, 4089, 4089, 4089, 4089, 4089, 4089, 4089, 4089, 4089, 4139, 4139, 4089, 4089, 4089, 4139, 4139, 4089, 4089, 4089, 4139, 4089, 4089, 4089, 4139, 4139, 4139, 4139, 4139, 4139, 4139, 4139, 4139, 4139, 4139, 4139, 4139, 4089, 4089, 4089, 4089, 4089, 4089, 4089, 4139, 4139, 4139, 4139, 4190, 4295, 4405, 4463, 4522, 4522, 4522, 4522, 4522, 4522, 4582, 4582, 4582, 4582, 4582, 4582, 4582, 4582, 4582, 4582, 4582, 4645, 4645, 4582, 4582, 4582, 4582, 4582, 4582, 4522, 4522, 4582, 4582, 4582, 4582, 4582, 4582, 4582, 4645, 4645, 4645, 4645, 4645, 4582, 4582, 4645, 4645, 4645, 4582, 4582, 4582, 4582, 4582, 4582, 4582, 4582, 4582, 4582, 4582, 4582, 4582, 4582, 4582, 4582, 4582, 4582, 4582, 4582, 4582, 4645, 4645, 4645, 4645, 4645, 4582, 4582, 4645, 4645, 4582, 4582, 4582, 4582, 4582, 4582, 4582, 4582, 4582, 4645, 4645, 4645, 4645, 4708, 4708, 4645, 4645, 4645, 4645, 4645, 4645, 4645, 4645, 4645, 4645, 4645, 4645, 4645, 4645, 4645, 4645, 4645, 4645, 4645, 4645, 4645, 4645, 4645, 4645, 4645, 4645, 4645, 4582, 4582, 4582, 4645, 4708, 4708, 4774, 4842, 4774, 4774, 4774, 4774, 4774, 4774, 4774, 4774, 4774, 4774, 4842, 4842, 4842, 4842, 4842, 4842, 4842, 4842, 4842, 4774, 4774, 4774, 4774, 4842, 4842, 4842, 4911, 4842, 4842, 4842, 4842, 4842, 4842, 4842, 4842, 4842, 4842, 4842, 4842, 4842, 4842, 4842, 4842, 4774, 4774, 4708, 4708, 4774, 4774, 4774, 4774, 4774, 4842, 4842, 4842, 4842, 4842, 4842, 4842, 4842, 4774, 4774, 4774, 4774, 4774, 4774, 4842, 4842, 4842, 4842, 4842, 4842, 4842, 4842, 4842, 4774, 4774, 4774, 4774, 4774, 4774, 4774, 4774, 4774, 4774, 4774, 4774, 4774, 4774, 4774, 4774, 4774, 4774, 4774, 4774, 5056, 5291, 5291, 5291, 5291, 5291, 5374, 5374, 5291, 5291, 5291, 5291, 5291, 5291, 5291, 5291, 5291, 5291, 5374, 5291, 5291, 5291, 5374, 5291, 5291, 5291, 5291, 5210, 5210, 5210, 5132, 5132, 5132, 5056, 5056, 5056, 5056, 5056, 5056, 5056, 5056, 5132, 5132, 5132, 5132, 5132, 5210, 5210, 5210, 5210, 5210, 5210, 5132, 5132, 5132, 5132, 5132, 5132, 5132, 5132, 5210, 5210, 5210, 5210, 5132, 5132, 5132, 5132, 5132, 5132, 5132, 5056, 5056, 5056, 5056, 5056, 5056, 5056, 5056, 5056, 5056, 5056, 5056, 5056, 5056, 5056, 5056, 5056, 5056, 5056, 4983, 4983, 5056, 5056, 4983, 3365, 3365, 3333, 3333, 3333, 3333, 3333, 3300, 3300, 3333, 3333, 3333, 3333, 3365, 3365, 3365, 3365, 3365, 3365, 3333, 3333, 3333, 3333, 3333, 3333, 3333, 3333, 3333, 3333, 3333, 3300, 3300, 3300, 3300, 3300, 3300, 3300, 3300, 3333, 3300, 3300, 3300, 3300, 3300, 3269, 3269, 3269, 3238, 3238, 3238, 3238, 3238, 3238, 3238, 3238, 3238, 3238, 3238, 3238, 3238, 3238, 3238
0, 0, 0, 3816, 3816, 3859, 3859, 3859, 3903, 3948, 3948, 3948, 3948, 3948, 3948, 3948, 3948, 3948, 3994, 3994, 3994, 3994, 3994, 3994, 3994, 3994, 3994, 3948, 3948, 3948, 3948, 3948, 3948, 3948, 3948, 3948, 3948, 3948, 3948, 3994, 3994, 3994, 3948, 3948, 3994, 3994, 3994, 3994, 4041, 3994, 3994, 3994, 3994, 3994, 3994, 4041, 4041, 4041, 4041, 3994, 3994, 3994, 4041, 4041, 3994, 3994, 3994, 3994, 4139, 4089, 4041, 4041, 4041, 4089, 4089, 4041, 4041, 4089, 4089, 4089, 4089, 4089, 4089, 4089, 4089, 4089, 4089, 4089, 4041, 4041, 4041, 4089, 4089, 4089, 4089, 4139, 4139, 4139, 4139, 4139, 4139, 4139, 4139, 4139, 4089, 4089, 4089, 4089, 4089, 4089, 4089, 4089, 4089, 4089, 4089, 4089, 4089, 4089, 4089, 4089, 4089, 4089, 4089, 4089, 4139, 4089, 4089, 4089, 4139, 4089, 4089, 4089, 4139, 4139, 4139, 4139, 4139, 4139, 4139, 4139, 4139, 4139, 4139, 4190, 4139, 4139, 4139, 4139, 4139, 4139, 4139, 4139, 4190, 4139, 4139, 4139, 4241, 4295, 4405, 4463, 4522, 4522, 4522, 4522, 4522, 4522, 4582, 4582, 4582, 4582, 4582, 4645, 4582, 4582, 4582, 4582, 4582, 4645, 4645, 4645, 4645, 4582, 4582, 4582, 4582, 4522, 4522, 4582, 4582, 4582, 4582, 4582, 4582, 4645, 4645, 4645, 4582, 4582, 4645, 4582, 4582, 4645, 4645, 4582, 4582, 4582, 4582, 4582, 4582, 4582, 4582, 4582, 4582, 4582, 4582, 4582, 4582, 4582, 4645, 4645, 4645, 4645, 4645, 4645, 4645, 4645, 4645, 4645, 4645, 4645, 4582, 4582, 4582, 4582, 4582, 4582, 4582, 4645, 4645, 4645, 4645, 4645, 4645, 4645, 4645, 4645, 4645, 4708, 4708, 4708, 4645, 4645, 4645, 4645, 4645, 4645, 4645, 4645, 4645, 4645, 4645, 4645, 4645, 4645, 4645, 4645, 4645, 4645, 4645, 4645, 4645, 4645, 4645, 4645, 4645, 4645, 4582, 4582, 4582, 4645, 4774, 4774, 4842, 4842, 4842, 4842, 4774, 4774, 4774, 4774, 4774, 4774, 4774, 4774, 4842, 4842, 4842, 4842, 4842, 4842, 4842, 4842, 4842, 4842, 4774, 4774, 4774, 4842, 4842, 4911, 4911, 4842, 4842, 4842, 4842, 4842, 4842, 4842, 4842, 4842, 4842, 4842, 4842, 4842, 4842, 4842, 4842, 4774, 4774, 4774, 4774, 4842, 4842, 4774, 4774, 4774, 4842, 4842, 4842, 4842, 4842, 4842, 4842, 4842, 4774, 4774, 4774, 4774, 4774, 4842, 4842, 4842, 4842, 4842, 4842, 4842, 4842, 4842, 4774, 4774, 4774, 4774, 4774, 4774, 4774, 4774, 4774, 4774, 4774, 4774, 4774, 4842, 4842, 4774, 4774, 4774, 4774, 4774, 4842, 5056, 5291, 5291, 5291, 5291, 5374, 5374, 5291, 5291, 5291, 5291, 5291, 5291, 5291, 5291, 5291, 5291, 5291, 5291, 5291, 5291, 5291, 5291, 5291, 5291, 5291, 5291, 5210, 5210, 5210, 5132, 5132, 5132, 5056, 5056, 5056, 5056, 5056, 5056, 5056, 5056, 5132, 5132, 5132, 5132, 5132, 5132, 5210, 5210, 5210, 5210, 5210, 5132, 5132, 5132, 5132, 5132, 5132, 5132, 5132, 5210, 5210, 5210, 5210, 5210, 5210, 5210, 5132, 5132, 5132, 5132, 5132, 5132, 5056, 5056, 5056, 5056, 5056, 5056, 5056, 5056, 5056, 5056, 5056, 5056, 5056, 5056, 5056, 5056, 5056, 4983, 4983, 5056, 5056, 4983, 3365, 3365, 3365, 3365, 3333, 3333, 3333, 3333, 3333, 3333, 3333, 3365, 3365, 3365, 3365, 3365, 3365, 3365, 3365, 3333, 3333, 3333, 3333, 3333, 3333, 3333, 3333, 3333, 3333, 3333, 3333, 3333, 3300, 3300, 3300, 3300, 3300, 3300, 3300, 3300, 3300, 3300, 3300, 3300, 3269, 3269, 3269, 3238, 3238, 3238, 3238, 3238, 3238, 3238, 3269, 3269, 3269, 3238, 3238, 3238, 3238, 3238
0, 0, 0, 3816, 3816, 3859, 3859, 3859, 3903, 3948, 3948, 3948, 3948, 3948, 3948, 3948, 3948, 3948, 3994, 3994, 3994, 3994, 3994, 3994, 3994, 3994, 3994, 3994, 3994, 3948, 3948, 3948, 3948, 3948, 3948, 3948, 3948, 3948, 3948, 3994, 3994, 3948, 3948, 3948, 3948, 4041, 4041, 4041, 4041, 4041, 3994, 3994, 3994, 3994, 3994, 4041, 4041, 4041, 4041, 4041, 4041, 4041, 4041, 4041, 3994, 3994, 3994, 3994, 4190, 4089, 4089, 4089, 4089, 4089, 4089, 4041, 4041, 4089, 4089, 4089, 4089, 4139, 4089, 4089, 4089, 4089, 4089, 4089, 4089, 4089, 4089, 4089, 4089, 4089, 4089, 4089, 4089, 4089, 4139, 4139, 4139, 4139, 4139, 4139, 4139, 4139, 4139, 4089, 4089, 4089, 4089, 4089, 4089, 4089, 4089, 4089, 4089, 4089, 4089, 4089, 4089, 4089, 4089, 4089, 4139, 4089, 4089, 4089, 4139, 4089, 4089, 4089, 4139, 4139, 4139, 4139, 4139, 4139, 4139, 4139, 4139, 4139, 4139, 4139, 4139, 4190, 4190, 4190, 4190, 4139, 4139, 4190, 4190, 4139, 4139, 4139, 4241, 4295, 4405, 4463, 4522, 4522, 4522, 4522, 4522, 4522, 4582, 4582, 4582, 4582, 4582, 4582, 4582, 4582, 4582, 4582, 4582, 4645, 4645, 4645, 4645, 4582, 4522, 4522, 4522, 4522, 4522, 4582, 4582, 4582, 4582, 4645, 4645, 4645, 4645, 4645, 4582, 4582, 4645, 4645, 4645, 4645, 4645, 4582, 4582, 4582, 4582, 4582, 4582, 4582, 4582, 4582, 4645, 4582, 4582, 4582, 4582, 4582, 4645, 4645, 4645, 4645, 4645, 4645, 4645, 4645, 4645, 4645, 4645, 4645, 4582, 4582, 4582, 4582, 4582, 4582, 4582, 4582, 4645, 4645, 4645, 4645, 4645, 4645, 4645, 4645, 4645, 4708, 4708, 4708, 4645, 4645, 4645, 4645, 4645, 4645, 4645, 4645, 4645, 4645, 4645, 4645, 4645, 4645, 4645, 4645, 4645, 4645, 4645, 4645, 4645, 4645, 4645, 4645, 4645, 4645, 4582, 4582, 4582, 4774, 4774, 4842, 4842, 4842, 4842, 4842, 4774, 4774, 4774, 4774, 4774, 4774, 4774, 4774, 4842, 4842, 4842, 4842, 4842, 4842, 4842, 4842, 4842, 4842, 4842, 4842, 4842, 4842, 4911, 4911, 4842, 4842, 4842, 4842, 4842, 4842, 4842, 4842, 4842, 4842, 4842, 4842, 4842, 4911, 4842, 4842, 4842, 4842, 4842, 4842, 4842, 4842, 4842, 4842, 4842, 4842, 4842, 4842, 4842, 4842, 4842, 4842, 4774, 4774, 4774, 4774, 4774, 4774, 4774, 4842, 4842, 4911, 4911, 4911, 4842, 4842, 4774, 4774, 4774, 4774, 4774, 4774, 4774, 4774, 4774, 4774, 4774, 4774, 4774, 4774, 4774, 4842, 4842, 4842, 4842, 4842, 4842, 4842, 4842, 5132, 5291, 5291, 5291, 5374, 5374, 5374, 5291, 5291, 5291, 5291, 5291, 5291, 5291, 5291, 5291, 5291, 5291, 5291, 5291, 5291, 5291, 5291, 5291, 5291, 5291, 5291, 5291, 5210, 5132, 5132, 5132, 5132, 5056, 5056, 5056, 5056, 5056, 5056, 5056, 5056, 5132, 5132, 5132, 5132, 5132, 5132, 5132, 5132, 5210, 5210, 5210, 5132, 5132, 5132, 5132, 5132, 5132, 5132, 5132, 5210, 5210, 5291, 5291, 5210, 5210, 5210, 5210, 5132, 5132, 5132, 5132, 5132, 5056, 5056, 5132, 5056, 5056, 5132, 5132, 5132, 5132, 5132, 5132, 5056, 5056, 5056, 5056, 5056, 5056, 4983, 4983, 5056, 5056, 4983, 3365, 3365, 3365, 3365, 3333, 3333, 3333, 3333, 3333, 3333, 3333, 3333, 3365, 3365, 3365, 3365, 3365, 3365, 3365, 3333, 3333, 3333, 3333, 3333, 3333, 3333, 3333, 3333, 3333, 3333, 3333, 3333, 3300, 3300, 3300, 3300, 3300, 3300, 3300, 3300, 3300, 3300, 3300, 3300, 3269, 3269, 3269, 3238, 3238, 3238, 3238, 3269, 3269, 3269, 3269, 3269, 3269, 3238, 3238, 3238, 3238, 3238
0, 0, 0, 3816, 3816, 3859, 3859, 3859, 3903, 3948, 3948, 3948, 3948, 3948, 3948, 3948, 3948, 3948, 3994, 3994, 3994, 3994, 3994, 3994, 3994, 3994, 3994, 3994, 3994, 3994, 3948, 3948, 3948, 3948, 3948, 3948, 3948, 3948, 3948, 3994, 3994, 3948, 3948, 3948, 3948, 3994, 3994, 3994, 3994, 3994, 3994, 4041, 4041, 4041, 4041, 4041, 4041, 4041, 4041, 4041, 4041, 4041, 4041, 4041, 4041, 3994, 3994, 3994, 4190, 4139, 4089, 4089, 4089, 4041, 4041, 4041, 4041, 4089, 4089, 4089, 4089, 4139, 4139, 4139, 4139, 4139, 4139, 4089, 4089, 4089, 4089, 4041, 4041, 4041, 4089, 4089, 4089, 4089, 4089, 4089, 4139, 4139, 4139, 4139, 4139, 4089, 4089, 4089, 4089, 4089, 4089, 4089, 4089, 4089, 4139, 4089, 4089, 4089, 4089, 4089, 4089, 4089, 4089, 4089, 4139, 4139, 4139, 4139, 4139, 4139, 4139, 4139, 4139, 4139, 4139, 4139, 4139, 4139, 4139, 4139, 4139, 4139, 4139, 4139, 0, 4190, 4190, 4190, 4190, 4139, 4139, 4190, 4190, 4190, 4139, 4139, 4190, 4295, 4405, 4463, 4522, 4522, 4522, 4522, 4522, 4522, 4582, 4582, 4582, 4582, 4582, 4582, 4582, 4582, 4582, 4582, 4582, 4645, 4645, 4582, 4582, 4582, 4522, 4522, 4522, 4522, 4522, 4582, 4582, 4582, 4645, 4645, 4645, 4645, 4645, 4645, 4645, 4645, 4645, 4645, 4645, 4645, 4645, 4582, 4582, 4582, 4582, 4582, 4582, 4582, 4582, 4582, 4645, 4582, 4582, 4582, 4582, 4582, 4645, 4645, 4645, 4645, 4645, 4645, 4645, 4645, 4645, 4645, 4645, 4645, 4582, 4582, 4582, 4582, 4582, 4582, 4582, 4582, 4645, 4645, 4645, 4645, 4645, 4645, 4645, 4645, 4645, 4708, 4708, 4708, 4645, 4645, 4645, 4645, 4645, 4645, 4645, 4645, 4645, 4645, 4645, 4645, 4645, 4645, 4645, 4645, 4645, 4645, 4645, 4645, 4645, 4645, 4645, 4645, 4645, 4645, 4645, 4645, 4645, 4842, 4842, 4842, 4842, 4842, 4842, 4842, 4774, 4774, 4774, 4774, 4774, 4774, 4774, 4774, 4842, 4842, 4842, 4842, 4842, 4842, 4842, 4842, 4842, 4842, 4842, 4842, 4842, 4842, 4911, 4911, 4842, 4842, 4842, 4842, 4842, 4842, 4842, 4842, 4842, 4842, 4842, 4842, 4842, 4911, 4911, 4911, 4842, 4842, 4842, 4842, 4842, 4842, 4842, 4842, 4774, 4774, 4774, 4774, 4774, 4774, 4774, 4774, 4774, 4774, 4774, 4774, 4774, 4774, 4774, 4842, 4842, 4842, 4842, 4911, 4842, 4842, 4774, 4774, 4774, 4774, 4774, 4774, 4774, 4774, 4774, 4774, 4842, 4842, 4774, 4774, 4774, 4842, 4842, 4842, 4842, 4842, 4842, 4911, 4911, 5056, 5291, 5291, 5374, 5374, 5374, 5374, 5374, 5374, 5291, 5291, 5291, 5291, 5291, 5291, 5291, 5291, 5291, 5291, 5291, 5291, 5291, 5291, 5291, 5291, 5210, 5210, 5210, 5210, 5056, 5056, 5132, 5132, 5056, 5056, 5056, 5056, 5056, 5056, 5056, 5056, 5132, 5132, 5132, 5056, 5056, 5132, 5132, 5132, 5210, 5210, 5210, 5210, 5210, 5132, 5132, 5132, 5132, 5132, 5132, 5132, 5210, 5210, 5210, 5210, 5210, 5210, 5291, 5210, 5132, 5132, 5132, 5056, 5056, 5056, 5132, 5132, 5132, 5132, 5132, 5132, 5132, 5132, 5132, 5056, 5056, 5056, 5056, 5056, 5056, 5056, 5056, 5056, 5056, 4983, 3399, 3365, 3365, 3365, 3365, 3333, 3333, 3333, 3333, 3333, 3333, 3333, 3365, 3365, 3365, 3365, 3365, 3365, 3333, 3333, 3333, 3333, 3333, 3333, 3333, 3333, 3333, 3333, 3333, 3333, 3333, 3333, 3333, 3300, 3300, 3300, 3300, 3300, 3333, 3333, 3300, 3300, 3300, 3300, 3269, 3269, 3269, 3238, 3238, 3238, 3238, 3269, 3269, 3269, 3269, 3269, 3269, 3269, 3238, 3238, 3238, 3238
0, 0, 0, 3816, 3816, 3816, 3816, 3859, 3859, 3948, 3948, 3948, 3948, 3948, 3948, 3948, 3948, 3948, 3994, 3994, 3994, 3994, 3994, 3994, 3994, 3994, 3994, 3994, 3994, 3994, 3994, 3994, 3994, 3994, 3994, 3994, 3994, 3948, 3948, 3994, 3994, 3994, 3994, 3994, 3994, 3994, 3994, 3994, 3994, 3994, 3994, 4041, 4041, 4041, 4041, 4089, 4089, 4089, 4089, 4041, 4041, 4041, 4041, 4041, 4041, 3994, 3994, 3994, 4139, 4139, 4089, 4089, 4089, 4041, 4041, 4041, 4041, 4089, 4089, 4089, 4089, 4139, 4139, 4139, 4139, 4139, 4139, 4089, 4089, 4089, 4089, 4041, 4041, 4041, 4089, 4089, 4089, 4089, 4089, 4089, 4139, 4139, 4139, 4139, 4089, 4089, 4089, 4089, 4089, 4089, 4089, 4089, 4089, 4139, 4139, 4089, 4089, 4089, 4089, 4089, 4089, 4089, 4089, 4139, 4139, 4139, 4139, 4139, 4190, 4190, 4139, 4139, 4139, 4190, 4190, 4139, 4139, 4139, 4139, 4139, 4139, 4139, 4139, 4139, 4139, 4139, 4139, 4139, 4190, 4139, 4139, 4190, 4190, 4190, 4190, 4190, 4190, 4241, 4349, 4405, 4463, 4522, 4522, 4522, 4522, 4522, 4522, 4582, 4582, 4582, 4582, 4582, 4582, 4582, 4582, 4582, 4582, 4645, 4645, 4582, 4582, 4582, 4522, 4522, 4522, 4522, 4522, 4582, 4582, 4582, 4582, 4645, 4645, 4645, 4645, 4645, 4645, 4645, 4645, 4645, 4645, 4645, 4645, 4582, 4582, 4582, 4582, 4582, 4582, 4582, 4582, 4582, 4582, 4582, 4582, 4582, 4582, 4582, 4582, 4582, 4645, 4645, 4645, 4645, 4645, 4645, 4645, 4645, 4645, 4645, 4582, 4582, 4582, 4582, 4582, 4582, 4582, 4582, 4645, 4582, 4582, 4645, 4645, 4645, 4645, 4645, 4645, 4708, 4708, 4708, 4645, 4645, 4708, 4708, 4645, 4645, 4645, 4645, 4645, 4645, 4708, 4708, 4708, 4708, 4645, 4645, 4645, 4645, 4645, 4645, 4645, 4645, 4645, 4645, 4645, 4645, 4645, 4645, 4708, 4842, 4842, 4842, 4842, 4842, 4842, 4842, 4774, 4774, 4774, 4774, 4774, 4774, 4774, 4774, 4842, 4842, 4842, 4842, 4842, 4842, 4842, 4842, 4842, 4842, 4842, 4842, 4842, 4911, 4911, 4911, 4911, 4911, 4911, 4911, 4911, 4842, 4842, 4842, 4911, 4911, 4842, 4842, 4911, 4911, 4842, 4774, 4774, 4842, 4842, 4842, 4774, 4774, 4842, 4842, 4774, 4774, 4774, 4774, 4774, 4774, 4774, 4774, 4774, 4774, 4774, 4774, 4774, 4774, 4842, 4842, 4842, 4842, 4842, 4911, 4842, 4842, 4774, 4774, 4774, 4774, 4774, 4774, 4774, 4774, 4774, 4774, 4842, 4842, 4842, 4842, 4842, 4842, 4842, 4842, 4842, 4842, 4842, 4911, 4983, 5056, 5132, 5132, 5374, 5374, 5374, 5374, 5291, 5291, 5374, 5291, 5291, 5291, 5291, 5291, 5291, 5291, 5291, 5291, 5291, 5291, 5291, 5291, 5291, 5291, 5210, 5210, 5210, 5210, 5056, 5056, 5132, 5132, 5056, 5056, 5056, 5056, 5056, 5132, 5132, 5132, 5132, 5132, 5132, 5056, 5056, 5132, 5132, 5132, 5210, 5210, 5210, 5210, 5210, 5132, 5132, 5132, 5132, 5132, 5132, 5132, 5132, 5210, 5210, 5210, 5210, 5210, 5291, 5210, 5132, 5132, 5132, 5056, 5056, 5056, 5132, 5132, 5132, 5132, 5132, 5132, 5132, 5132, 5132, 5132, 5056, 5056, 5056, 5056, 5056, 5056, 5056, 5056, 5132, 5056, 3399, 3365, 3365, 3365, 3365, 3333, 3333, 3333, 3333, 3333, 3333, 3333, 3333, 3333, 3333, 3333, 3333, 3333, 3333, 3333, 3333, 3333, 3333, 3333, 3333, 3333, 3333, 3333, 3333, 3333, 3333, 3333, 3333, 3333, 3300, 3300, 3300, 3300, 3300, 3300, 3300, 3300, 3300, 3300, 3269, 3269, 3238, 3238, 3238, 3238, 3238, 3238, 3269, 3269, 3269, 3269, 3269, 3269, 3238, 3238, 3238, 3238
0, 0, 0, 3816, 3816, 3816, 3816, 3816, 3816, 3948, 3948, 3948, 3948, 3948, 3948, 3948, 3948, 3948, 3994, 3994, 3994, 3994, 3994, 3994, 3994, 3994, 3994, 3994, 3994, 3994, 3994, 3994, 3994, 3994, 3994, 3994, 3994, 3948, 3948, 3994, 3994, 3994, 3994, 3994, 3994, 3994, 3994, 3994, 3994, 3994, 3994, 4041, 4041, 4041, 4041, 4089, 4089, 4089, 4041, 4041, 4041, 4041, 4089, 4041, 4041, 4041, 3994, 3994, 4139, 4139, 4089, 4089, 4089, 4089, 4089, 4089, 4089, 4089, 4089, 4089, 4089, 4139, 4139, 4139, 4139, 4139, 4139, 4089, 4089, 4089, 4041, 4041, 4041, 4041, 4089, 4089, 4089, 4089, 4089, 4089, 4089, 4089, 4139, 4089, 4089, 4089, 4089, 4089, 4089, 4089, 4089, 4089, 4139, 4139, 4139, 4139, 4139, 4139, 4089, 4089, 4089, 4089, 4139, 4139, 4139, 4139, 4139, 4139, 4190, 4190, 4139, 4139, 4190, 4190, 4190, 4139, 4139, 4139, 4139, 4139, 4139, 4139, 4139, 4139, 4139, 4190, 4139, 4139, 4139, 4139, 4139, 4139, 4190, 4190, 4190, 4190, 4190, 4241, 4349, 4405, 4463, 4522, 4522, 4522, 4522, 4522, 4522, 4582, 4582, 4582, 4582, 4582, 4582, 4582, 4582, 4582, 4645, 4645, 4645, 4582, 4582, 4582, 4522, 4522, 4522, 4522, 4522, 4582, 4582, 4582, 4582, 4645, 4645, 4645, 4645, 4645, 4645, 4645, 4645, 4645, 4645, 4645, 4645, 4582, 4582, 4582, 4645, 4645, 4645, 4645, 4645, 4645, 4582, 4582, 4582, 4582, 4582, 4582, 4582, 4582, 4645, 4645, 4645, 4645, 4645, 4645, 4645, 4645, 4645, 4645, 4582, 4582, 4582, 4582, 4582, 4582, 4582, 4582, 4645, 4582, 4582, 4645, 4645, 4645, 4645, 4645, 4645, 4645, 4708, 4645, 4645, 4645, 4645, 4645, 4645, 4645, 4645, 4708, 4708, 4708, 4708, 4708, 4708, 4708, 4708, 4708, 4708, 4645, 4645, 4645, 4645, 4645, 4645, 4645, 4645, 4645, 4645, 4645, 4708, 4842, 4842, 4842, 4842, 4842, 4842, 4842, 4774, 4774, 4842, 4842, 4842, 4774, 4774, 4842, 4842, 4842, 4842, 4842, 4842, 4842, 4774, 4774, 4774, 4842, 4842, 4842, 4842, 4911, 4911, 4911, 4911, 4911, 4911, 4911, 4911, 4842, 4842, 4842, 4911, 4911, 4842, 4842, 4842, 4842, 4774, 4774, 4774, 4842, 4842, 4842, 4774, 4774, 4842, 4842, 4774, 4774, 4774, 4774, 4774, 4774, 4774, 4774, 4774, 4774, 4774, 4774, 4774, 4774, 4842, 4842, 4842, 4842, 4842, 4842, 4842, 4842, 4774, 4774, 4774, 4774, 4774, 4774, 4774, 4774, 4774, 4774, 4842, 4842, 4842, 4842, 4842, 4842, 4842, 4842, 4842, 4911, 4911, 4911, 4983, 5056, 5056, 5056, 0, 5056, 5291, 5291, 5291, 5291, 5374, 5291, 5291, 5291, 5291, 5291, 5291, 5291, 5291, 5291, 5291, 5291, 5291, 5291, 5291, 5291, 5210, 5210, 5210, 5132, 5132, 5132, 5056, 5056, 5056, 5056, 5056, 5056, 5056, 5132, 5132, 5132, 5132, 5132, 5132, 5132, 5132, 5210, 5210, 5210, 5210, 5210, 5210, 5210, 5132, 5132, 5132, 5132, 5132, 5132, 5132, 5132, 5132, 5210, 5210, 5291, 5291, 5291, 5291, 5210, 5210, 5210, 5132, 5132, 5132, 5132, 5132, 5132, 5132, 5132, 5132, 5132, 5132, 5132, 5132, 5132, 5132, 5056, 5056, 5056, 5056, 5056, 5056, 5132, 5132, 5132, 3399, 3365, 3365, 3365, 3333, 3333, 3333, 3333, 3333, 3333, 3333, 3333, 3333, 3333, 3333, 3333, 3333, 3333, 3365, 3365, 3365, 3365, 3365, 3365, 3365, 3333, 3333, 3333, 3333, 3333, 3333, 3333, 3333, 3333, 3300, 3300, 3300, 3300, 3300, 3300, 3300, 3300, 3300, 3300, 3269, 3269, 3238, 3238, 3238, 3238, 3238, 3238, 3269, 3269, 3269, 3269, 3238, 3238, 3238, 3238, 3238, 3238
0, 0, 0, 3816, 3816, 3816, 3816, 3816, 3816, 3948, 3948, 3948, 3948, 3994, 3948, 3948, 3948, 3948, 3994, 3994, 3994, 3994, 3994, 3994, 3994, 3994, 3994, 3994, 3994, 3994, 3994, 3994, 3994, 3994, 3994, 3994, 3994, 3994, 3994, 3994, 3994, 3994, 3994, 3994, 3994, 3994, 3994, 3994, 3994, 3994, 4041, 4041, 4041, 4041, 4041, 4089, 4089, 4089, 4041, 4041, 4089, 4089, 4041, 4041, 4041, 3994, 3994, 3994, 4139, 4089, 4089, 4089, 4089, 4089, 4089, 4089, 4089, 4089, 4089, 4089, 4089, 4139, 4139, 4139, 4139, 4139, 4139, 4089, 4089, 4089, 4041, 4041, 4041, 4041, 4089, 4089, 4089, 4089, 4089, 4089, 4089, 4089, 4139, 4089, 4089, 4089, 4089, 4089, 4089, 4089, 4089, 4089, 4139, 4139, 4139, 4139, 4139, 4139, 4089, 4089, 4089, 4089, 4139, 4139, 4139, 4139, 4139, 4139, 4190, 4190, 4190, 4190, 4190, 4190, 4190, 4190, 4139, 4139, 4139, 4139, 4139, 4089, 4089, 4139, 4139, 4190, 4139, 4139, 4139, 4139, 4139, 4139, 4190, 4139, 4139, 4190, 4190, 4241, 4349, 4405, 4463, 4522, 4582, 4582, 4582, 4582, 4582, 4582, 4582, 4582, 4582, 4582, 4582, 4582, 4582, 4582, 4645, 4645, 4645, 4645, 4645, 4582, 4522, 4522, 4522, 4522, 4522, 4582, 4582, 4582, 4582, 4645, 4645, 4645, 4645, 4645, 4645, 4708, 4645, 4645, 4645, 4645, 4645, 4645, 4645, 4645, 4645, 4645, 4645, 4645, 4645, 4645, 4582, 4582, 4582, 4582, 4582, 4582, 4582, 4582, 4582, 4645, 4645, 4645, 4645, 4645, 4645, 4645, 4645, 4645, 4645, 4645, 4582, 4582, 4582, 4582, 4582, 4645, 4645, 4645, 4645, 4645, 4645, 4645, 4645, 4645, 4645, 4645, 4645, 4645, 4645, 4645, 4645, 4645, 4645, 4645, 4645, 4645, 4645, 4645, 4708, 4708, 4708, 4708, 4708, 4708, 4708, 4708, 4645, 4645, 4645, 4645, 4645, 4645, 4645, 4645, 4645, 4645, 4708, 4842, 4842, 4842, 4842, 4842, 4842, 4842, 4774, 4774, 4842, 4842, 4842, 4842, 4842, 4842, 4842, 4842, 4842, 4842, 4842, 4842, 4774, 4774, 4774, 4774, 4842, 4842, 4842, 4842, 4911, 4911, 4911, 4911, 4911, 4911, 4911, 4911, 4911, 4911, 4911, 4911, 4911, 4911, 4842, 4842, 4774, 4774, 4774, 4842, 4842, 4842, 4774, 4774, 4842, 4842, 4774, 4774, 4774, 4774, 4774, 4774, 4774, 4774, 4774, 4774, 4774, 4774, 4774, 4774, 4842, 4842, 4842, 4842, 4842, 4842, 4774, 4774, 4774, 4774, 4774, 4774, 4774, 4774, 4774, 4774, 4774, 4774, 4842, 4842, 4842, 4842, 4842, 4842, 4842, 4842, 4842, 4911, 4911, 4911, 4983, 4983, 5056, 5056, 0, 0, 0, 5291, 5291, 5291, 5374, 5291, 5291, 5291, 5291, 5291, 5291, 5291, 5291, 5291, 5291, 5291, 5291, 5291, 5291, 5291, 5210, 5210, 5210, 5132, 5132, 5132, 5056, 5056, 5056, 5056, 5056, 5056, 5132, 5132, 5132, 5132, 5210, 5210, 5132, 5132, 5132, 5210, 5210, 5210, 5210, 5210, 5210, 5210, 5132, 5132, 5132, 5132, 5132, 5132, 5132, 5132, 5132, 5210, 5210, 5291, 5291, 5291, 5291, 5210, 5210, 5210, 5132, 5132, 5132, 5132, 5132, 5132, 5132, 5132, 5132, 5132, 5132, 5132, 5132, 5132, 5132, 5056, 5056, 5056, 5056, 5056, 5056, 5132, 5132, 5132, 5132, 3365, 3365, 3365, 3333, 3333, 3333, 3333, 3333, 3333, 3333, 3365, 3365, 3333, 3333, 3333, 3333, 3333, 3333, 3333, 3333, 3333, 3333, 3333, 3333, 3333, 3333, 3333, 3333, 3333, 3333, 3333, 3300, 3300, 3300, 3300, 3300, 3300, 3300, 3300, 3300, 3300, 3300, 3269, 3269, 3269, 3269, 3238, 3238, 3238, 3238, 3238, 3269, 3269, 3269, 3269, 3238, 3238, 3238, 3238, 3238, 3238
0, 0, 0, 3816, 3816, 3816, 3816, 3816, 3859, 3948, 3948, 3948, 3994, 3994, 3948, 3948, 3948, 3948, 3994, 3948, 3948, 3948, 3994, 3994, 3994, 3994, 3994, 3994, 3994, 3994, 3994, 3994, 3994, 3994, 3994, 3994, 3994, 3994, 3994, 3994, 3994, 3994, 3994, 3994, 3994, 3994, 3994, 3994, 3994, 3994, 4041, 4041, 4041, 4041, 4041, 4089, 4089, 4089, 4089, 4089, 4089, 4041, 4041, 4041, 4041, 3994, 3994, 3994, 4041, 4089, 4089, 4139, 4089, 4089, 4089, 4089, 4089, 4089, 4089, 4089, 4089, 4139, 4139, 4139, 4139, 4089, 4089, 4041, 4041, 4089, 4041, 4041, 4041, 4041, 4041, 4089, 4041, 4041, 4041, 4089, 4089, 4139, 4139, 4139, 4089, 4089, 4089, 4089, 4089, 4089, 4089, 4089, 4089, 4139, 4139, 4089, 4089, 4089, 4089, 4089, 4089, 4089, 4089, 4089, 4089, 4089, 4089, 4139, 4190, 4190, 4190, 4190, 4190, 4190, 4190, 4190, 4139, 4139, 4139, 4139, 4139, 4089, 4089, 4139, 4139, 4190, 4089, 4089, 4139, 4089, 4089, 4139, 4190, 4139, 4139, 4139, 4190, 4241, 4349, 4463, 4522, 4582, 4582, 4582, 4582, 4582, 4582, 4582, 4582, 4582, 4522, 4522, 4522, 4522, 4522, 4582, 4582, 4582, 4582, 4645, 4582, 4582, 4522, 4522, 4522, 4522, 4522, 4522, 4522, 4582, 4582, 4582, 4645, 4645, 4645, 4645, 4645, 4708, 4645, 4645, 4645, 4645, 4645, 4645, 4645, 4645, 4645, 4645, 4645, 4645, 4645, 4645, 4582, 4582, 4582, 4582, 4582, 4582, 4582, 4582, 4582, 4645, 4645, 4645, 4645, 4645, 4645, 4645, 4645, 4582, 4582, 4582, 4582, 4582, 4582, 4582, 4582, 4582, 4645, 4645, 4645, 4645, 4645, 4645, 4645, 4582, 4582, 4645, 4645, 4645, 4645, 4645, 4645, 4645, 4645, 4645, 4645, 4645, 4645, 4645, 4645, 4708, 4708, 4708, 4708, 4708, 4708, 4708, 4645, 4645, 4645, 4645, 4645, 4645, 4645, 4645, 4645, 4645, 4708, 4842, 4842, 4842, 4842, 4842, 4842, 4842, 4842, 4842, 4842, 4842, 4842, 4774, 4774, 4842, 4842, 4842, 4842, 4842, 4842, 4842, 4774, 4774, 4774, 4774, 4774, 4774, 4842, 4842, 4911, 4911, 4911, 4911, 4911, 4911, 4911, 4911, 4911, 4911, 4911, 4911, 4911, 4842, 4842, 4842, 4774, 4774, 4774, 4842, 4842, 4842, 4774, 4774, 4774, 4842, 4774, 4774, 4774, 4774, 4774, 4774, 4774, 4774, 4774, 4774, 4774, 4774, 4774, 4774, 4842, 4842, 4842, 4842, 4842, 4774, 4774, 4774, 4774, 4774, 4774, 4774, 4774, 4774, 4842, 4842, 4842, 4842, 4842, 4911, 4842, 4842, 4842, 4842, 4842, 4842, 4842, 4911, 4911, 4911, 4983, 4983, 5056, 5056, 0, 0, 0, 5374, 0, 0, 5374, 5291, 5291, 5291, 5291, 5291, 5291, 5291, 5291, 5291, 5291, 5291, 5291, 5291, 5291, 5291, 5210, 5210, 5210, 5132, 5132, 5132, 5056, 5056, 5056, 5056, 5056, 5056, 5132, 5132, 5132, 5132, 5210, 5210, 5210, 5132, 5132, 5210, 5210, 5210, 5210, 5210, 5210, 5210, 5132, 5132, 5132, 5132, 5132, 5132, 5132, 5132, 5132, 5210, 5210, 5210, 5210, 5210, 5291, 5210, 5132, 5132, 5132, 5132, 5132, 5132, 5132, 5132, 5132, 5132, 5132, 5132, 5132, 5132, 5132, 5132, 5132, 5056, 5056, 5056, 5056, 5056, 5056, 5056, 5132, 5132, 5132, 3399, 3365, 3365, 3333, 3333, 3333, 3300, 3300, 3333, 3333, 3333, 3333, 3333, 3333, 3333, 3333, 3333, 3333, 3333, 3333, 3333, 3333, 3333, 3333, 3333, 3333, 3333, 3333, 3333, 3333, 3333, 3300, 3300, 3300, 3300, 3269, 3269, 3300, 3300, 3300, 3300, 3300, 3269, 3269, 3269, 3269, 3269, 3269, 3269, 3269, 3269, 3269, 3269, 3238, 3238, 3238, 3238, 3238, 3238, 3238, 3238
