0, 0, 0, 0, 0, 0, 0, 0, 0, 523, 523, 524, 0, 524, 529, 529, 530, 531, 532, 532, 532, 533, 534, 0, 0, 538, 538, 538, 540, 540, 540, 540, 540, 542, 543, 542, 542, 546, 546, 546, 546, 546, 546, 547, 548, 550, 554, 554, 556, 556, 557, 556, 557, 558, 559, 561, 561, 561, 562, 563, 565, 565, 569, 571, 572, 572, 572, 573, 574, 575, 576, 578, 579, 580, 581, 582, 583, 583, 584, 0, 588, 590, 591, 592, 593, 594, 595, 595, 596, 596, 597, 599, 602, 603, 604, 604, 606, 606, 608, 609, 611, 611, 612, 613, 615, 618, 619, 620, 620, 621, 621, 621, 622, 624, 625, 628, 629, 630, 631, 632, 632, 634, 635, 637, 638, 640, 641, 641, 642, 643, 646, 648, 649, 649, 650, 650, 652, 653, 654, 657, 659, 661, 661, 663, 663, 663, 664, 666, 668, 671, 672, 674, 675, 676, 676, 678, 678, 680, 680, 682, 683, 688, 690, 690, 691, 693, 693, 694, 696, 697, 698, 700, 703, 706, 707, 708, 708, 710, 710, 713, 714, 716, 716, 719, 720, 720, 722, 722, 723, 727, 730, 731, 734, 738, 738, 738, 739, 741, 741, 741, 744, 746, 747, 749, 749, 752, 754, 755, 757, 759, 761, 762, 766, 767, 771, 771, 773, 773, 774, 776, 778, 780, 781, 781, 783, 783, 785, 789, 792, 794, 794, 796, 798, 798, 802, 807, 809, 809, 811, 813, 817, 817, 819, 823, 825, 825, 831, 833, 835, 835, 837, 839, 841, 843, 843, 847, 849, 851, 856, 858, 858, 858, 860, 862, 862, 873, 875, 875, 878, 880, 880, 885, 885, 887, 887, 889, 891, 896, 898, 901, 903, 903, 906, 908, 913, 915, 915, 920, 923, 923, 925, 928, 930, 930, 933, 938, 940, 943, 954, 954, 954, 956, 962, 962, 962, 964, 967, 970, 975, 975, 984, 984, 984, 987, 989, 992, 998, 1001, 1007, 1007, 1013, 1016, 1019, 1022, 1022, 1025, 1028, 1031, 1034, 1034, 1038, 1041, 1044, 1050, 1054, 1060, 1063, 1063, 1067, 1070, 1070, 1073, 1080, 1080, 1087, 1087, 1094, 1097, 1101, 1105, 1105, 1112, 1115, 1119, 1123, 1126, 1130, 1134, 1141, 1145, 1149, 1153, 1157, 1157, 1161, 1165, 1169, 1169, 1173, 1173, 1177, 1181, 1189, 1193, 1193, 1202, 1202, 1214, 1223, 1223, 1232, 1232, 1241, 1241, 1245, 1250, 1255, 1255, 1259, 1264, 1268, 1273, 1278, 1283, 1288, 1288, 1292, 1297, 1307, 1312, 1317, 0, 0, 1328, 0, 0, 0, 3816, 3816, 3816, 3816, 3816, 3859, 3859, 3859, 3859, 3859, 3903, 3903, 3859, 3859, 3859, 3859, 3859, 3859, 3859, 3816, 3859, 3859, 3859, 3859, 3859, 3859, 3816, 3859, 3816, 3816, 3816, 3774, 3816, 3774, 3774, 3732, 3816, 3816, 3816, 3816, 3816, 3774, 3816, 3816, 3816, 3774, 3774, 3774, 3732, 3774, 3732, 3774, 3774, 3774, 3816, 3774, 3816, 3774, 3774, 3732, 3732, 3732, 3732, 3774, 3774, 3732, 3774, 3774, 3774, 3774, 3732, 3732, 3732, 3732, 3732, 3732, 3732, 3732, 3732, 3692, 3692, 3732, 3692, 3692, 3692, 3732, 3732, 3732, 3732, 3692, 3732, 3732, 3774, 3732, 3732, 3732, 3692, 3732, 3692, 3692, 3692, 3732, 3732, 3732, 3732, 3732, 3732, 3692, 3692, 3692, 3692, 3692, 3692, 3692, 3692, 3692, 3692, 3692, 3692, 3692, 3692, 3692, 3692, 3692, 3692, 3653, 3692, 3692, 3692, 3653, 3653, 3653, 3653, 3692, 3692, 3692, 3692, 3653, 3653, 3653, 3653, 3653, 3653, 3653, 3653, 3653, 3653, 3653, 3653, 3653, 3692, 3692, 3692, 3653, 3653, 3692, 3692, 3692, 3692, 3692, 3732, 3732, 3774, 3732, 3732, 3732, 3732, 3732, 3732, 3732, 3774, 3692, 3816, 0, 3732, 3774, 3732, 3732, 3692, 3692, 3653, 3653, 3653, 3653, 3653, 3653, 3653, 3653, 3653, 3653, 3653, 3653, 3692, 3732, 3692, 3732, 3732, 3774, 3774, 3774, 3732, 3732, 3732, 3732, 3692, 3692, 3692, 3692, 3692, 3692, 3653, 3653, 3614, 3614, 3576, 3576, 3576, 3539, 3503, 3503, 3503, 3468, 3433, 3433, 3399, 0, 0, 0, 0, 0, 0, 0, 0
520, 521, 521, 0, 521, 521, 521, 523, 522, 523, 523, 525, 528, 524, 529, 529, 530, 531, 532, 532, 532, 532, 533, 534, 536, 538, 538, 539, 540, 540, 540, 540, 540, 542, 542, 543, 543, 546, 546, 546, 546, 546, 547, 547, 549, 550, 554, 554, 556, 556, 557, 557, 558, 558, 559, 561, 561, 562, 562, 563, 565, 565, 567, 569, 571, 572, 572, 573, 574, 575, 575, 578, 579, 580, 581, 582, 583, 584, 584, 586, 588, 590, 590, 591, 593, 593, 595, 595, 596, 596, 597, 600, 602, 603, 603, 604, 606, 606, 608, 610, 611, 612, 612, 613, 615, 616, 618, 619, 620, 621, 621, 621, 623, 625, 625, 628, 629, 630, 631, 632, 632, 635, 635, 638, 638, 640, 641, 641, 642, 643, 646, 649, 649, 650, 650, 650, 653, 654, 655, 658, 659, 661, 662, 663, 664, 664, 666, 667, 670, 671, 672, 674, 675, 676, 678, 678, 679, 680, 680, 682, 683, 690, 691, 691, 691, 693, 693, 694, 696, 697, 698, 700, 703, 706, 707, 708, 710, 710, 710, 713, 714, 716, 716, 717, 719, 720, 722, 722, 722, 727, 730, 731, 734, 738, 738, 738, 739, 739, 741, 742, 744, 746, 749, 749, 750, 752, 754, 755, 755, 757, 759, 762, 764, 767, 771, 771, 773, 773, 774, 776, 778, 780, 781, 781, 783, 783, 783, 789, 792, 794, 796, 796, 798, 800, 802, 807, 807, 809, 811, 815, 817, 819, 819, 823, 825, 827, 831, 833, 833, 835, 837, 839, 839, 841, 843, 845, 849, 851, 856, 858, 858, 858, 860, 862, 862, 871, 873, 875, 875, 880, 880, 885, 885, 887, 889, 891, 894, 896, 898, 901, 901, 903, 906, 908, 913, 915, 915, 918, 920, 923, 925, 930, 930, 930, 933, 938, 940, 943, 948, 951, 954, 956, 962, 962, 964, 967, 967, 970, 975, 975, 984, 984, 987, 987, 989, 992, 998, 1001, 1004, 1007, 1013, 1016, 1019, 1022, 1022, 1025, 1028, 1031, 1034, 1034, 1038, 1041, 1044, 1050, 1054, 1060, 1063, 1063, 1067, 1070, 1070, 1073, 1080, 1084, 1087, 1087, 1094, 1097, 1101, 1105, 1105, 1112, 1115, 1119, 1123, 1130, 1130, 1134, 1138, 1145, 1149, 1153, 1157, 1157, 1165, 1165, 1169, 1173, 1173, 1177, 1181, 1181, 1189, 1189, 1193, 1202, 1202, 1210, 1219, 1223, 1232, 1232, 1236, 1245, 1245, 1250, 1255, 1255, 1259, 1268, 1268, 1273, 1278, 1283, 1288, 1292, 1297, 1302, 1307, 1317, 1317, 1322, 1322, 1328, 1328, 0, 0, 3859, 3859, 3859, 3859, 3859, 3859, 3859, 3859, 3859, 3903, 3903, 3903, 3859, 3859, 3859, 3859, 3859, 3859, 3859, 3816, 3859, 3859, 3859, 3816, 3816, 3816, 3859, 3859, 3859, 3816, 3816, 3816, 3816, 3774, 3774, 3816, 3816, 3816, 3816, 3816, 3816, 3816, 3816, 3816, 3816, 3816, 3816, 3816, 3816, 3816, 3774, 3816, 3816, 3816, 3816, 3816, 3816, 3816, 3816, 3774, 3774, 3774, 3774, 3774, 3774, 3774, 3774, 3774, 3774, 3732, 3732, 3732, 3732, 3732, 3732, 3732, 3732, 3732, 3732, 3692, 3732, 3774, 3732, 3732, 3692, 3732, 3732, 3732, 3732, 3692, 3732, 3732, 3774, 3732, 3774, 3774, 3732, 3732, 3732, 3732, 3732, 3732, 3692, 3774, 3732, 3774, 3732, 3732, 3732, 3692, 3692, 3692, 3692, 3692, 3692, 3692, 3692, 3692, 3692, 3692, 3692, 3692, 3692, 3692, 3692, 3692, 3692, 3692, 3692, 3692, 3692, 3692, 3653, 3692, 3692, 3692, 3692, 3692, 3692, 3692, 3653, 3653, 3653, 3653, 3653, 3653, 3653, 3653, 3692, 3692, 3692, 3692, 3692, 3692, 3692, 3692, 3692, 3692, 3692, 3692, 3732, 3732, 3732, 3732, 3732, 3732, 3732, 3774, 3774, 3774, 3774, 3774, 3816, 3816, 3774, 3774, 3732, 3732, 3692, 3692, 3692, 3653, 3653, 3653, 3692, 3653, 3653, 3653, 3692, 3692, 3692, 3692, 3692, 3732, 3732, 3732, 3732, 3774, 3774, 3774, 3774, 3774, 3774, 3732, 3732, 3692, 3692, 3692, 3692, 3692, 3653, 3653, 3653, 3614, 3576, 3576, 3576, 3539, 3503, 3503, 3468, 3468, 3433, 3433, 3399, 0, 0, 0, 0, 0, 0, 0, 0
521, 521, 521, 521, 521, 521, 522, 523, 523, 523, 524, 525, 528, 527, 528, 529, 530, 530, 532, 531, 532, 532, 533, 534, 535, 539, 539, 539, 540, 540, 540, 540, 540, 541, 543, 543, 543, 546, 546, 546, 547, 547, 547, 548, 549, 550, 554, 555, 556, 557, 557, 557, 558, 558, 560, 561, 562, 563, 563, 564, 565, 565, 565, 568, 571, 571, 572, 573, 574, 575, 575, 578, 580, 581, 582, 583, 583, 584, 584, 585, 587, 589, 590, 591, 592, 593, 595, 595, 596, 596, 597, 600, 602, 602, 604, 604, 606, 606, 609, 610, 611, 612, 612, 613, 615, 616, 618, 619, 620, 621, 622, 622, 624, 625, 625, 627, 628, 629, 630, 631, 632, 635, 636, 638, 640, 640, 641, 641, 642, 642, 646, 649, 650, 650, 652, 652, 653, 654, 655, 658, 661, 661, 662, 663, 664, 664, 666, 667, 670, 671, 672, 672, 675, 676, 678, 679, 679, 680, 680, 680, 682, 690, 691, 691, 691, 693, 693, 694, 694, 697, 698, 701, 703, 706, 707, 708, 710, 710, 711, 713, 714, 716, 716, 719, 720, 722, 723, 723, 725, 728, 730, 733, 734, 738, 738, 738, 739, 739, 741, 742, 744, 746, 747, 749, 749, 752, 754, 755, 755, 757, 757, 761, 762, 766, 769, 771, 773, 773, 774, 776, 780, 780, 781, 781, 783, 785, 785, 790, 792, 794, 796, 796, 798, 800, 803, 807, 807, 811, 813, 813, 815, 817, 819, 823, 825, 827, 833, 833, 835, 835, 835, 839, 841, 843, 843, 847, 849, 851, 854, 856, 856, 858, 858, 862, 862, 869, 871, 875, 875, 880, 882, 885, 887, 887, 889, 891, 894, 896, 898, 901, 903, 906, 906, 910, 913, 915, 915, 918, 920, 920, 925, 928, 930, 933, 935, 938, 940, 943, 948, 951, 954, 956, 959, 962, 962, 967, 967, 970, 975, 978, 984, 984, 984, 987, 989, 992, 1001, 1001, 1007, 1010, 1013, 1016, 1019, 1022, 1022, 1025, 1028, 1034, 1038, 1038, 1041, 1044, 1047, 1050, 1054, 1060, 1063, 1067, 1070, 1070, 1073, 1077, 1080, 1084, 1087, 1087, 1090, 1097, 1101, 1105, 1105, 1112, 1115, 1119, 1119, 1126, 1134, 1134, 1141, 1145, 1149, 1153, 1157, 1157, 1165, 1165, 1169, 1173, 1177, 1177, 1181, 1181, 1189, 1193, 1193, 1202, 1202, 1210, 1219, 1219, 1232, 1236, 1241, 1245, 1245, 1250, 1255, 1255, 1259, 1264, 1268, 1273, 1283, 1288, 1292, 1292, 1297, 1307, 1312, 1317, 1317, 1322, 1322, 1328, 1328, 1328, 1328, 3859, 3859, 3859, 3859, 3859, 3859, 3903, 3903, 3903, 3903, 3903, 3903, 3903, 3859, 3859, 3859, 3859, 3859, 3859, 3859, 3859, 3859, 3859, 3816, 3859, 3859, 3859, 3859, 3859, 3859, 3816, 3816, 3816, 3816, 3859, 3816, 3859, 3816, 3816, 3816, 3859, 3816, 3816, 3816, 3816, 3816, 3816, 3816, 3816, 3816, 3816, 3816, 3816, 3816, 3816, 3816, 3816, 3816, 3816, 3774, 3774, 3774, 3816, 3816, 3816, 3774, 3774, 3816, 3774, 3774, 3732, 3732, 3732, 3732, 3732, 3732, 3732, 3732, 3732, 3732, 3732, 3732, 3732, 3732, 3732, 3732, 3732, 3732, 3732, 3732, 3774, 3732, 3732, 3732, 3774, 3732, 3732, 3732, 3732, 3732, 3732, 3732, 3774, 3774, 3732, 3774, 3774, 3774, 3774, 3732, 3732, 3732, 3732, 3692, 3692, 3692, 3692, 3692, 3692, 3692, 3692, 3692, 3692, 3692, 3692, 3692, 3692, 3692, 3692, 3692, 3692, 3692, 3692, 3692, 3692, 3732, 3732, 3692, 3732, 3692, 3692, 3692, 3653, 3653, 3653, 3653, 3653, 3653, 3653, 3692, 3692, 3692, 3692, 3692, 3692, 3692, 3692, 3732, 3692, 3732, 3732, 3732, 3732, 3732, 3732, 3732, 3732, 3774, 3774, 3774, 3816, 3816, 3816, 3816, 3774, 3732, 3732, 3732, 3692, 3692, 3692, 3692, 3692, 3692, 3692, 3692, 3653, 3692, 3692, 3692, 3692, 3692, 3692, 3732, 3732, 3732, 3732, 3774, 3774, 3774, 3774, 3774, 3774, 3774, 3732, 3732, 3732, 3732, 3692, 3653, 3653, 3653, 3653, 3614, 3614, 3614, 3576, 3539, 3503, 3503, 3468, 3468, 3468, 3433, 3399, 0, 0, 0, 0, 0, 0, 0, 0
518, 520, 521, 521, 521, 521, 522, 523, 522, 523, 523, 525, 525, 525, 525, 528, 529, 530, 532, 533, 534, 533, 534, 534, 535, 535, 536, 536, 540, 540, 540, 540, 540, 542, 542, 543, 543, 545, 545, 547, 547, 547, 548, 549, 550, 551, 552, 555, 556, 556, 556, 556, 557, 558, 560, 562, 563, 563, 564, 564, 565, 565, 565, 568, 570, 571, 572, 573, 574, 575, 575, 578, 580, 582, 583, 583, 584, 584, 584, 585, 587, 589, 590, 591, 593, 593, 595, 596, 597, 596, 596, 600, 602, 602, 604, 604, 608, 608, 610, 610, 611, 612, 613, 614, 615, 616, 618, 619, 620, 621, 623, 623, 625, 625, 625, 627, 628, 629, 630, 631, 632, 634, 636, 638, 640, 641, 641, 641, 642, 642, 646, 649, 650, 650, 652, 652, 653, 654, 655, 659, 661, 662, 662, 664, 666, 666, 667, 668, 670, 671, 672, 672, 675, 676, 678, 679, 679, 680, 680, 682, 682, 690, 690, 691, 693, 693, 693, 694, 696, 698, 700, 703, 704, 706, 707, 708, 708, 710, 710, 711, 714, 714, 716, 719, 720, 723, 725, 725, 727, 728, 730, 733, 734, 738, 738, 738, 739, 739, 741, 742, 744, 746, 749, 750, 750, 752, 754, 755, 757, 757, 759, 761, 762, 766, 767, 771, 773, 773, 774, 778, 780, 780, 781, 783, 783, 785, 787, 790, 792, 794, 796, 796, 800, 802, 803, 805, 807, 811, 813, 813, 817, 819, 821, 823, 825, 827, 827, 833, 833, 835, 835, 839, 841, 843, 845, 847, 849, 851, 854, 856, 856, 858, 860, 864, 864, 869, 871, 873, 875, 880, 882, 885, 887, 887, 889, 889, 894, 896, 898, 901, 903, 906, 906, 908, 913, 915, 915, 918, 920, 920, 925, 928, 930, 930, 935, 938, 940, 943, 946, 951, 954, 956, 959, 964, 964, 967, 970, 970, 975, 978, 984, 984, 984, 987, 989, 992, 1001, 1007, 1010, 1010, 1013, 1016, 1019, 1022, 1022, 1028, 1031, 1034, 1038, 1038, 1041, 1041, 1044, 1050, 1054, 1060, 1063, 1067, 1070, 1070, 1073, 1077, 1080, 1084, 1087, 1087, 1090, 1094, 1101, 1105, 1105, 1108, 1115, 1119, 1119, 1130, 1134, 1134, 1141, 1145, 1149, 1153, 1153, 1157, 1165, 1165, 1169, 1173, 1177, 1181, 1181, 1185, 1189, 1193, 1193, 1202, 1202, 1206, 1219, 1223, 1232, 1236, 1241, 1245, 1250, 1250, 1255, 1255, 1259, 1264, 1268, 1273, 1278, 1283, 1288, 1292, 1297, 1307, 1312, 1317, 1317, 1322, 1322, 1322, 1328, 1328, 0, 0, 3948, 3903, 3903, 3903, 3903, 3903, 3948, 3903, 3948, 3948, 3948, 3903, 3859, 3903, 3859, 3903, 3859, 3859, 3859, 3859, 3903, 3859, 3859, 3859, 3859, 3859, 3859, 3859, 3859, 3859, 3859, 3816, 3816, 3816, 3816, 3859, 3859, 3859, 3816, 3859, 3859, 3859, 3859, 3859, 3859, 3859, 3816, 3816, 3816, 3816, 3816, 3816, 3816, 3816, 3816, 3816, 3816, 3816, 3816, 3816, 3816, 3816, 3816, 3816, 3816, 3816, 3816, 3774, 3774, 3732, 3732, 3732, 3732, 3732, 3732, 3732, 3774, 3774, 3732, 3774, 3774, 3774, 3774, 3732, 3774, 3774, 3732, 3732, 3732, 3774, 3732, 3732, 3732, 3732, 3732, 3732, 3732, 3732, 3732, 3774, 3774, 3774, 3774, 3774, 3774, 3774, 3774, 3774, 3774, 3774, 3732, 3732, 3692, 3692, 3692, 3692, 3692, 3653, 3653, 3692, 3692, 3732, 3692, 3692, 3692, 3692, 3692, 3692, 3692, 3692, 3692, 3692, 3692, 3692, 3692, 3732, 3692, 3732, 3692, 3692, 3692, 3692, 3653, 3653, 3692, 3653, 3692, 3692, 3692, 3692, 3692, 3692, 3692, 3692, 3732, 3692, 3692, 3692, 3692, 3692, 3692, 3732, 3692, 3732, 3732, 3732, 3774, 3774, 3774, 3816, 3816, 3816, 3816, 3774, 3774, 3732, 3732, 3732, 3692, 3692, 3692, 3692, 3692, 3692, 3692, 3692, 3692, 3692, 3692, 3692, 3692, 3732, 3732, 3732, 3774, 3774, 3774, 3774, 3774, 3774, 3774, 3816, 3774, 3774, 3774, 3732, 3732, 3732, 3692, 3653, 3653, 3653, 3614, 3576, 3614, 3576, 3576, 3539, 3503, 3503, 3468, 3468, 3433, 3399, 0, 0, 0, 0, 0, 0, 0, 0
519, 520, 521, 521, 522, 522, 522, 523, 522, 523, 523, 527, 525, 524, 525, 531, 531, 532, 533, 534, 534, 534, 534, 534, 534, 534, 535, 536, 540, 540, 540, 540, 541, 541, 542, 542, 542, 544, 545, 547, 547, 548, 549, 549, 550, 551, 553, 556, 557, 557, 557, 557, 558, 561, 561, 563, 563, 564, 564, 564, 565, 565, 568, 569, 570, 571, 572, 572, 573, 575, 576, 579, 580, 582, 583, 583, 584, 584, 584, 585, 587, 589, 590, 591, 593, 593, 595, 596, 596, 596, 597, 601, 602, 603, 604, 606, 608, 609, 611, 611, 612, 613, 613, 614, 615, 616, 618, 618, 619, 621, 623, 623, 625, 625, 627, 628, 628, 629, 630, 630, 634, 635, 636, 638, 640, 640, 641, 641, 641, 642, 646, 649, 650, 650, 652, 652, 653, 654, 658, 661, 663, 663, 663, 664, 666, 666, 666, 667, 668, 671, 672, 672, 675, 676, 678, 679, 680, 680, 682, 682, 683, 687, 690, 691, 693, 693, 693, 694, 696, 698, 700, 703, 704, 706, 707, 708, 710, 710, 710, 711, 714, 714, 716, 717, 720, 723, 725, 725, 727, 728, 730, 733, 736, 736, 738, 738, 738, 739, 741, 742, 744, 746, 749, 750, 750, 754, 755, 757, 757, 757, 759, 762, 764, 766, 767, 769, 771, 773, 774, 776, 780, 780, 781, 783, 785, 787, 787, 790, 792, 794, 796, 796, 800, 802, 803, 805, 807, 811, 813, 813, 817, 819, 821, 823, 825, 827, 827, 833, 833, 833, 835, 839, 841, 843, 845, 847, 849, 851, 854, 856, 858, 860, 862, 864, 867, 867, 871, 873, 875, 880, 882, 885, 887, 887, 889, 891, 896, 898, 901, 901, 903, 906, 906, 908, 913, 913, 915, 915, 918, 920, 925, 928, 930, 933, 935, 938, 940, 943, 948, 951, 954, 956, 959, 964, 964, 967, 970, 970, 975, 978, 981, 984, 984, 984, 989, 992, 1004, 1007, 1010, 1010, 1016, 1016, 1019, 1022, 1022, 1028, 1031, 1034, 1038, 1038, 1041, 1041, 1044, 1050, 1054, 1057, 1060, 1063, 1067, 1070, 1073, 1077, 1080, 1084, 1084, 1087, 1090, 1094, 1101, 1105, 1105, 1108, 1112, 1115, 1115, 1130, 1138, 1138, 1141, 1145, 1149, 1153, 1153, 1157, 1165, 1169, 1169, 1173, 1177, 1181, 1181, 1189, 1193, 1193, 1197, 1202, 1202, 1210, 1223, 1223, 1236, 1236, 1245, 1250, 1250, 1250, 1255, 1255, 1259, 1264, 1268, 1273, 1278, 1288, 1292, 1292, 1302, 1307, 1312, 1317, 1317, 1317, 1322, 1328, 1333, 1333, 1365, 1376, 3948, 3948, 3948, 3903, 3903, 3903, 3948, 3903, 3948, 3948, 3948, 3903, 3903, 3903, 3903, 3903, 3903, 3903, 3903, 3903, 3948, 3903, 3859, 3859, 3903, 3859, 3903, 3859, 3859, 3859, 3859, 3859, 3816, 3816, 3816, 3816, 3816, 3816, 3816, 3859, 3859, 3859, 3859, 3859, 3859, 3859, 3859, 3816, 3816, 3816, 3816, 3816, 3816, 3816, 3816, 3816, 3816, 3816, 3816, 3816, 3816, 3816, 3816, 3816, 3816, 3816, 3816, 3774, 3774, 3774, 3732, 3732, 3732, 3732, 3732, 3774, 3774, 3774, 3774, 3774, 3774, 3774, 3774, 3774, 3774, 3774, 3732, 3732, 3732, 3774, 3732, 3774, 3732, 3774, 3774, 3732, 3732, 3732, 3774, 3774, 3774, 3774, 3816, 3774, 3774, 3774, 3774, 3774, 3774, 3774, 3774, 3732, 3732, 3732, 3692, 3692, 3692, 3692, 3692, 3692, 3692, 3732, 3732, 3692, 3692, 3692, 3732, 3692, 3692, 3692, 3692, 3732, 3732, 3692, 3692, 3732, 3732, 3774, 3732, 3692, 3692, 3692, 3692, 3692, 3692, 3692, 3692, 3692, 3692, 3692, 3732, 3732, 3692, 3732, 3732, 3732, 3732, 3732, 3732, 3732, 3732, 3732, 3692, 3732, 3732, 3732, 3774, 3774, 3816, 3816, 3816, 3816, 3816, 3816, 3774, 3692, 3732, 3692, 3692, 3692, 3692, 3692, 3692, 3692, 3692, 3692, 3692, 3692, 3692, 3692, 3692, 3732, 3732, 3732, 3774, 3774, 3816, 3816, 3774, 3774, 3816, 3816, 3816, 3816, 3816, 3774, 3774, 3774, 3732, 3692, 3653, 3653, 3576, 3576, 3614, 3576, 3576, 3539, 3503, 3503, 3503, 3503, 3433, 3433, 0, 0, 0, 0, 0, 0, 0, 0
520, 520, 521, 521, 521, 522, 522, 522, 522, 522, 526, 527, 527, 527, 532, 532, 532, 533, 534, 534, 534, 534, 533, 533, 534, 534, 534, 535, 536, 541, 540, 540, 541, 542, 542, 542, 542, 544, 545, 547, 547, 548, 549, 549, 550, 552, 554, 556, 557, 557, 558, 559, 559, 561, 562, 563, 563, 564, 564, 564, 565, 567, 568, 569, 570, 571, 572, 572, 574, 576, 577, 579, 580, 582, 583, 583, 584, 584, 584, 585, 587, 590, 591, 591, 593, 593, 595, 595, 596, 596, 599, 601, 602, 603, 604, 606, 608, 609, 611, 611, 611, 613, 613, 614, 615, 616, 618, 618, 619, 621, 623, 623, 625, 625, 627, 627, 628, 629, 630, 631, 634, 635, 636, 638, 640, 641, 641, 641, 641, 643, 644, 648, 650, 652, 653, 652, 654, 655, 659, 661, 663, 664, 663, 664, 666, 666, 666, 667, 668, 670, 671, 672, 675, 676, 678, 679, 680, 680, 682, 682, 683, 687, 690, 691, 693, 693, 694, 696, 696, 698, 698, 703, 706, 707, 708, 708, 710, 710, 711, 711, 714, 714, 716, 717, 722, 723, 725, 725, 727, 730, 731, 733, 734, 736, 738, 738, 738, 739, 741, 742, 744, 747, 749, 750, 752, 752, 755, 757, 757, 757, 761, 764, 764, 766, 767, 769, 771, 773, 774, 776, 780, 780, 781, 783, 785, 787, 787, 789, 792, 792, 794, 796, 798, 800, 803, 807, 809, 813, 815, 815, 817, 819, 823, 823, 825, 827, 829, 829, 831, 833, 835, 839, 841, 843, 845, 847, 849, 849, 854, 856, 858, 860, 862, 864, 867, 867, 869, 873, 875, 880, 880, 885, 887, 887, 889, 894, 896, 898, 901, 901, 901, 906, 906, 910, 913, 913, 915, 915, 918, 920, 925, 930, 930, 933, 935, 938, 940, 940, 948, 951, 954, 956, 962, 964, 964, 967, 970, 970, 973, 975, 981, 984, 984, 984, 989, 992, 1001, 1007, 1010, 1013, 1016, 1016, 1019, 1019, 1022, 1028, 1034, 1034, 1038, 1038, 1041, 1041, 1041, 1047, 1054, 1060, 1060, 1063, 1067, 1070, 1073, 1080, 1080, 1084, 1087, 1087, 1090, 1094, 1101, 1101, 1105, 1108, 1112, 1115, 1119, 1134, 1138, 1138, 1141, 1145, 1145, 1153, 1153, 1157, 1165, 1165, 1169, 1173, 1173, 1181, 1185, 1189, 1193, 1197, 1202, 1202, 1206, 1214, 1219, 1223, 1232, 1236, 1245, 1250, 1250, 1255, 1255, 1255, 1259, 1264, 1268, 1273, 1278, 1283, 1292, 1297, 1302, 1307, 1312, 1317, 1317, 1317, 1328, 1328, 1338, 1349, 1365, 1376, 1376, 1387, 3994, 3948, 3948, 3948, 3948, 3948, 3948, 3948, 3948, 3948, 3903, 3903, 3903, 3903, 3903, 3903, 3903, 3903, 3948, 3903, 3903, 3859, 3903, 3903, 3903, 3859, 3859, 3859, 3859, 3859, 3859, 3859, 3816, 3859, 3859, 3859, 3859, 3859, 3859, 3859, 3859, 3859, 3859, 3859, 3859, 3816, 3816, 3816, 3816, 3816, 3816, 3816, 3816, 3816, 3816, 3816, 3816, 3816, 3816, 3859, 3816, 3816, 3816, 3816, 3816, 3816, 3774, 3732, 3774, 3774, 3774, 3774, 3732, 3774, 3816, 3816, 3816, 3816, 3816, 3774, 3816, 3774, 3774, 3732, 3732, 3732, 3732, 3774, 3774, 3774, 3774, 3816, 3816, 3774, 3774, 3774, 3774, 3774, 3774, 3816, 3816, 3774, 3816, 3774, 3816, 3774, 3774, 3774, 3774, 3732, 3732, 3732, 3692, 3732, 3732, 3732, 3692, 3732, 3732, 3732, 3732, 3692, 3692, 3692, 3732, 3692, 3692, 3692, 3692, 3732, 3732, 3732, 3732, 3732, 3732, 3774, 3732, 3732, 3732, 3732, 3692, 3692, 3732, 3692, 3692, 3692, 3692, 3692, 3732, 3732, 3692, 3732, 3732, 3732, 3732, 3732, 3732, 3732, 3732, 3732, 3732, 3774, 3774, 3774, 3774, 3816, 3816, 3816, 3816, 3816, 3816, 3816, 3816, 3774, 3774, 3732, 3732, 3692, 3692, 3732, 3732, 3732, 3732, 3732, 3732, 3732, 3732, 3732, 3732, 3732, 3774, 3774, 3774, 3816, 3816, 3816, 3816, 3816, 3816, 3816, 3816, 3816, 3816, 3774, 3774, 3774, 3732, 3692, 3653, 3653, 3614, 3614, 3614, 3614, 3576, 3539, 3539, 3503, 3539, 3539, 3468, 3433, 0, 0, 0, 0, 0, 0, 0, 0
520, 521, 521, 521, 522, 522, 522, 522, 522, 522, 523, 523, 523, 0, 532, 532, 532, 532, 533, 534, 534, 534, 534, 534, 534, 534, 535, 535, 540, 541, 540, 540, 541, 542, 542, 543, 543, 545, 545, 546, 546, 547, 549, 549, 550, 551, 555, 556, 557, 557, 558, 558, 560, 561, 562, 563, 563, 564, 565, 565, 565, 567, 568, 569, 570, 571, 572, 572, 574, 576, 577, 579, 580, 582, 583, 584, 584, 584, 585, 585, 587, 589, 590, 591, 593, 593, 595, 595, 596, 596, 599, 601, 602, 603, 604, 606, 608, 609, 611, 611, 611, 613, 613, 614, 615, 616, 618, 618, 619, 621, 624, 624, 625, 627, 627, 628, 629, 630, 631, 632, 635, 635, 636, 638, 640, 641, 641, 641, 642, 643, 646, 648, 649, 650, 653, 652, 653, 654, 658, 661, 662, 663, 663, 664, 666, 666, 667, 667, 668, 671, 671, 672, 675, 676, 679, 679, 680, 680, 682, 682, 683, 688, 691, 691, 693, 693, 694, 696, 696, 697, 698, 701, 703, 704, 706, 707, 708, 710, 710, 713, 714, 716, 716, 719, 722, 723, 725, 725, 727, 730, 731, 733, 736, 736, 738, 738, 738, 739, 741, 742, 746, 747, 749, 750, 752, 752, 755, 757, 757, 759, 761, 762, 764, 766, 767, 769, 771, 773, 774, 776, 780, 780, 781, 783, 785, 787, 787, 789, 792, 792, 794, 794, 798, 800, 805, 807, 811, 815, 815, 815, 817, 819, 821, 823, 825, 827, 829, 831, 831, 833, 835, 837, 841, 843, 845, 847, 849, 849, 851, 856, 856, 860, 862, 864, 867, 867, 869, 873, 875, 880, 882, 885, 887, 887, 891, 896, 898, 898, 901, 901, 901, 903, 906, 908, 910, 913, 915, 915, 918, 918, 925, 930, 933, 933, 935, 938, 940, 943, 946, 948, 954, 956, 962, 964, 964, 967, 970, 973, 975, 978, 981, 984, 984, 984, 989, 995, 1001, 1007, 1010, 1013, 1016, 1016, 1019, 1019, 1022, 1028, 1031, 1034, 1038, 1038, 1041, 1041, 1044, 1044, 1050, 1054, 1060, 1063, 1067, 1070, 1073, 1080, 1080, 1084, 1087, 1087, 1094, 1097, 1101, 1105, 1105, 1108, 1108, 1112, 1112, 1134, 1138, 1138, 1141, 1145, 1145, 1149, 1153, 1161, 1165, 1165, 1169, 1173, 1177, 1181, 1185, 1193, 1197, 1197, 1202, 1206, 1206, 1214, 1219, 1223, 1232, 1236, 1241, 1245, 1250, 1250, 1255, 1259, 1259, 1264, 1273, 1278, 1283, 1288, 1292, 1297, 1302, 1307, 1312, 1317, 1317, 1322, 1328, 1333, 1338, 1343, 1365, 1370, 1376, 1387, 1392, 3994, 3994, 3994, 3994, 3948, 3994, 3948, 3948, 3948, 3903, 3903, 3903, 3903, 3903, 3903, 3903, 3903, 3903, 3903, 3903, 3903, 3903, 3903, 3948, 3903, 3903, 3903, 3903, 3903, 3903, 3903, 3859, 3903, 3903, 3903, 3903, 3903, 3903, 3903, 3903, 3859, 3859, 3859, 3859, 3816, 3816, 3816, 3859, 3816, 3816, 3816, 3816, 3816, 3816, 3859, 3859, 3859, 3859, 3859, 3859, 3859, 3859, 3859, 3859, 3816, 3774, 3774, 3816, 3816, 3816, 3774, 3774, 3816, 3816, 3816, 3816, 3816, 3816, 3816, 3816, 3774, 3774, 3774, 3774, 3774, 3774, 3816, 3816, 3816, 3816, 3816, 3816, 3816, 3816, 3816, 3816, 3774, 3774, 3774, 3816, 3816, 3816, 3816, 3816, 3774, 3774, 3774, 3774, 3774, 3774, 3774, 3732, 3732, 3732, 3732, 3774, 3774, 3774, 3774, 3774, 3732, 3732, 3774, 3774, 3774, 3732, 3732, 3732, 3774, 3774, 3732, 3732, 3816, 3816, 3816, 3774, 3774, 3732, 3732, 3732, 3692, 3692, 3692, 3692, 3692, 3692, 3692, 3732, 3732, 3732, 3732, 3774, 3732, 3732, 3732, 3692, 3732, 3732, 3732, 3732, 3774, 3774, 3774, 3816, 3816, 3816, 3816, 3816, 3816, 3816, 3816, 3816, 3774, 3774, 3732, 3732, 3732, 3732, 3774, 3774, 3774, 3774, 3774, 3774, 3774, 3774, 3774, 3774, 3774, 3774, 3774, 3774, 3816, 3816, 3816, 3816, 3816, 3816, 3816, 3816, 3816, 3816, 3774, 3774, 3774, 3732, 3692, 3692, 3653, 3614, 3614, 3653, 3614, 3614, 3539, 3539, 3539, 3576, 3576, 3539, 3539, 0, 0, 0, 0, 0, 0, 0, 0
521, 521, 522, 522, 523, 522, 522, 522, 522, 522, 523, 523, 0, 0, 0, 531, 531, 532, 533, 534, 534, 534, 534, 534, 535, 535, 535, 536, 540, 541, 540, 540, 541, 542, 542, 543, 543, 545, 545, 546, 546, 547, 549, 549, 550, 553, 554, 556, 556, 557, 558, 558, 560, 561, 562, 563, 564, 565, 565, 565, 565, 567, 568, 569, 569, 570, 572, 573, 575, 577, 578, 580, 582, 583, 583, 584, 584, 584, 585, 586, 587, 588, 590, 591, 592, 593, 595, 596, 596, 597, 599, 601, 602, 603, 604, 606, 608, 609, 610, 610, 611, 613, 613, 615, 616, 616, 618, 618, 619, 622, 625, 625, 627, 627, 627, 628, 629, 629, 630, 631, 635, 636, 637, 640, 640, 640, 642, 641, 642, 641, 646, 649, 650, 652, 653, 653, 654, 655, 658, 659, 661, 663, 663, 664, 666, 666, 667, 668, 668, 671, 671, 671, 674, 676, 679, 679, 680, 680, 682, 682, 683, 690, 691, 691, 693, 693, 694, 694, 696, 698, 698, 701, 703, 706, 706, 707, 708, 710, 710, 711, 713, 714, 716, 719, 722, 725, 727, 727, 728, 730, 731, 733, 736, 736, 738, 738, 738, 739, 741, 744, 747, 749, 750, 752, 754, 754, 755, 755, 757, 759, 761, 764, 764, 766, 767, 769, 771, 773, 776, 776, 780, 780, 781, 783, 785, 787, 787, 790, 790, 792, 794, 794, 798, 802, 807, 809, 811, 813, 815, 815, 817, 819, 821, 823, 825, 829, 829, 831, 833, 833, 835, 837, 839, 843, 845, 847, 849, 849, 851, 854, 856, 860, 862, 864, 867, 867, 867, 871, 875, 880, 882, 885, 887, 889, 894, 896, 898, 898, 901, 901, 901, 903, 906, 908, 910, 913, 915, 915, 918, 918, 925, 930, 933, 935, 938, 940, 943, 943, 948, 951, 954, 956, 962, 964, 964, 970, 973, 973, 975, 978, 981, 984, 984, 984, 989, 995, 1001, 1007, 1010, 1010, 1016, 1016, 1019, 1022, 1022, 1025, 1031, 1034, 1038, 1038, 1041, 1041, 1044, 1044, 1050, 1054, 1057, 1063, 1073, 1073, 1077, 1080, 1080, 1087, 1090, 1090, 1097, 1101, 1105, 1105, 1105, 1108, 1112, 1112, 1115, 1130, 1134, 1138, 1138, 1145, 1145, 1149, 1153, 1157, 1165, 1165, 1169, 1173, 1181, 1185, 1189, 1193, 1193, 1197, 1202, 1202, 1206, 1214, 1219, 1219, 1227, 1232, 1236, 1245, 1250, 1250, 1255, 1255, 1259, 1264, 1273, 1283, 1288, 1288, 1292, 1297, 1297, 1307, 1312, 1322, 1317, 1322, 1328, 1333, 1338, 1343, 1354, 1370, 1370, 1387, 1392, 1398, 4041, 4041, 4041, 3994, 3994, 3994, 3994, 3948, 3948, 3948, 3948, 3948, 3903, 3903, 3903, 3903, 3903, 3903, 3903, 3903, 3948, 3948, 3948, 3948, 3994, 3948, 3948, 3948, 3948, 3948, 3903, 3948, 3948, 3903, 3903, 3903, 3903, 3903, 3903, 3903, 3859, 3859, 3859, 3859, 3859, 3859, 3859, 3816, 3859, 3816, 3816, 3816, 3816, 3859, 3859, 3859, 3859, 3859, 3859, 3859, 3859, 3859, 3859, 3816, 3774, 3816, 3816, 3816, 3816, 3816, 3774, 3816, 3816, 3816, 3816, 3816, 3816, 3816, 3816, 3774, 3816, 3816, 3816, 3816, 3816, 3816, 3816, 3816, 3816, 3816, 3816, 3816, 3816, 3816, 3816, 3816, 3816, 3816, 3816, 3816, 3816, 3816, 3816, 3816, 3774, 3774, 3774, 3774, 3774, 3774, 3774, 3774, 3774, 3816, 3816, 3816, 3774, 3774, 3774, 3816, 3816, 3816, 3816, 3816, 3774, 3774, 3816, 3816, 3816, 3816, 3816, 3816, 3816, 3816, 3774, 3774, 3774, 3732, 3732, 3692, 3692, 3692, 3732, 3692, 3692, 3692, 3732, 3732, 3732, 3774, 3774, 3774, 3732, 3732, 3732, 3732, 3774, 3732, 3732, 3774, 3774, 3816, 3816, 3816, 3816, 3816, 3816, 3816, 3816, 3774, 3774, 3774, 3774, 3774, 3732, 3732, 3732, 3774, 3774, 3774, 3774, 3774, 3816, 3816, 3816, 3816, 3816, 3816, 3816, 3816, 3816, 3816, 3816, 3816, 3816, 3816, 3816, 3816, 3816, 3816, 3816, 3816, 3816, 3774, 3732, 3692, 3692, 3653, 3653, 3653, 3653, 3653, 3614, 3576, 3576, 3576, 3576, 3576, 3539, 3539, 0, 0, 0, 0, 0, 0, 0, 0
521, 522, 522, 522, 523, 523, 522, 522, 522, 521, 522, 522, 0, 529, 529, 531, 531, 532, 533, 533, 534, 534, 534, 534, 534, 534, 534, 536, 540, 541, 540, 540, 541, 542, 542, 543, 543, 546, 546, 546, 547, 548, 550, 550, 552, 553, 554, 555, 555, 556, 557, 557, 559, 560, 562, 563, 564, 565, 565, 565, 565, 568, 568, 569, 569, 570, 572, 572, 572, 578, 580, 581, 583, 583, 584, 584, 584, 584, 585, 585, 587, 588, 590, 592, 595, 595, 596, 596, 596, 596, 599, 601, 602, 603, 606, 606, 608, 609, 610, 610, 611, 614, 614, 615, 616, 616, 618, 618, 619, 621, 624, 625, 627, 627, 628, 629, 630, 630, 631, 632, 635, 636, 637, 638, 640, 640, 641, 641, 642, 642, 644, 648, 649, 650, 653, 653, 654, 655, 655, 659, 659, 662, 663, 664, 666, 666, 667, 668, 668, 671, 672, 672, 675, 678, 679, 680, 680, 682, 682, 682, 683, 693, 691, 691, 693, 693, 694, 694, 696, 700, 701, 703, 704, 706, 706, 707, 707, 708, 710, 713, 713, 714, 716, 717, 722, 727, 727, 728, 728, 730, 730, 733, 734, 736, 738, 738, 739, 739, 741, 744, 747, 749, 750, 752, 752, 754, 755, 755, 757, 759, 761, 764, 766, 766, 767, 769, 771, 773, 774, 776, 778, 780, 781, 783, 787, 789, 789, 790, 790, 792, 796, 796, 802, 807, 807, 809, 811, 813, 815, 815, 817, 819, 821, 823, 825, 831, 831, 833, 833, 833, 835, 837, 839, 843, 845, 847, 849, 849, 851, 854, 856, 860, 862, 864, 867, 867, 867, 871, 878, 882, 885, 885, 887, 889, 894, 896, 898, 898, 898, 898, 901, 903, 906, 908, 910, 913, 915, 915, 918, 918, 925, 930, 933, 935, 938, 940, 940, 943, 946, 948, 962, 962, 964, 964, 967, 970, 973, 973, 975, 978, 981, 984, 984, 987, 989, 998, 998, 1007, 1007, 1010, 1016, 1016, 1016, 1022, 1022, 1025, 1031, 1034, 1038, 1038, 1041, 1041, 1044, 1047, 1050, 1054, 1060, 1063, 1070, 1070, 1077, 1080, 1084, 1090, 1090, 1090, 1097, 1101, 1105, 1105, 1105, 1108, 1108, 1108, 1112, 1130, 1138, 1134, 1138, 1141, 1145, 1149, 1153, 1157, 1165, 1165, 1169, 1173, 1181, 1185, 1193, 1193, 1197, 1197, 1202, 1206, 1206, 1214, 1219, 1219, 1227, 1227, 1232, 1245, 1250, 1250, 1255, 1255, 1259, 1264, 1273, 1283, 1288, 1288, 1292, 1297, 1297, 1307, 1307, 1317, 1317, 1322, 1328, 1333, 1338, 1343, 1354, 1365, 1370, 1387, 1392, 1398, 1404, 1410, 4041, 3994, 3994, 3994, 3994, 3994, 3948, 3948, 3948, 3994, 3948, 3948, 3948, 3948, 3948, 3948, 3948, 3948, 3994, 3948, 3948, 3948, 3948, 3948, 3948, 3948, 3948, 3994, 3948, 3994, 3948, 3948, 3948, 3948, 3948, 3948, 3903, 3903, 3859, 3903, 3859, 3859, 3859, 3859, 3859, 3859, 3859, 3816, 3859, 3859, 3859, 3859, 3859, 3859, 3859, 3859, 3859, 3859, 3859, 3859, 3859, 3816, 3816, 3816, 3816, 3816, 3816, 3816, 3816, 3859, 3859, 3859, 3859, 3816, 3816, 3816, 3816, 3816, 3816, 3816, 3816, 3816, 3816, 3816, 3816, 3816, 3816, 3816, 3859, 3816, 3816, 3816, 3816, 3816, 3816, 3816, 3816, 3816, 3816, 3816, 3816, 3816, 3816, 3816, 3774, 3816, 3774, 3816, 3774, 3816, 3774, 3774, 3816, 3816, 3774, 3774, 3774, 3774, 3816, 3816, 3816, 3816, 3774, 3774, 3816, 3816, 3859, 3816, 3774, 3816, 3816, 3816, 3816, 3816, 3774, 3774, 3774, 3732, 3732, 3732, 3732, 3732, 3774, 3732, 3774, 3774, 3774, 3816, 3816, 3774, 3774, 3774, 3774, 3774, 3774, 3732, 3774, 3774, 3816, 3816, 3816, 3816, 3816, 3816, 3816, 3859, 3816, 3816, 3816, 3816, 3816, 3774, 3774, 3774, 3774, 3774, 3774, 3816, 3816, 3816, 3816, 3816, 3816, 3816, 3816, 3816, 3816, 3816, 3816, 3816, 3816, 3816, 3816, 3816, 3816, 3816, 3816, 3816, 3816, 3816, 3816, 3816, 3774, 3732, 3692, 3692, 3692, 3653, 3692, 3653, 3614, 3614, 3614, 3576, 3614, 3614, 3576, 3539, 0, 0, 0, 0, 0, 0, 0, 0
521, 521, 522, 522, 523, 524, 522, 522, 523, 522, 523, 523, 525, 529, 529, 529, 530, 531, 533, 533, 534, 534, 534, 534, 534, 534, 534, 538, 540, 541, 540, 540, 541, 542, 542, 543, 543, 545, 546, 548, 548, 550, 550, 551, 552, 553, 554, 554, 555, 556, 557, 557, 560, 561, 562, 563, 564, 565, 565, 565, 565, 568, 568, 569, 570, 571, 573, 574, 578, 579, 581, 581, 583, 584, 584, 584, 584, 584, 585, 587, 587, 589, 591, 594, 595, 595, 596, 596, 596, 598, 599, 601, 602, 603, 604, 606, 609, 609, 610, 610, 612, 614, 614, 616, 618, 618, 618, 618, 619, 621, 624, 625, 627, 628, 629, 629, 630, 631, 631, 632, 635, 636, 637, 638, 640, 640, 641, 642, 642, 643, 644, 646, 647, 650, 653, 654, 654, 655, 657, 658, 659, 662, 663, 664, 666, 666, 666, 668, 668, 671, 672, 672, 676, 678, 678, 679, 680, 680, 682, 682, 683, 690, 691, 691, 693, 693, 694, 694, 697, 700, 701, 703, 704, 704, 706, 707, 708, 708, 711, 713, 714, 714, 716, 719, 725, 727, 727, 728, 728, 730, 730, 733, 736, 736, 738, 738, 739, 739, 741, 744, 747, 749, 750, 752, 752, 754, 755, 757, 759, 761, 762, 764, 766, 766, 767, 769, 771, 773, 774, 776, 778, 780, 781, 783, 787, 787, 789, 790, 790, 790, 794, 796, 803, 807, 807, 809, 809, 811, 813, 813, 815, 817, 819, 821, 827, 831, 833, 833, 835, 835, 837, 839, 839, 843, 845, 847, 849, 849, 851, 854, 856, 862, 864, 864, 867, 867, 867, 871, 880, 882, 885, 885, 887, 887, 891, 896, 896, 898, 898, 898, 901, 903, 906, 908, 913, 915, 918, 918, 920, 920, 925, 928, 933, 935, 940, 940, 943, 946, 948, 951, 956, 962, 964, 964, 964, 967, 970, 973, 973, 978, 981, 984, 984, 987, 992, 998, 1001, 1010, 1010, 1013, 1016, 1016, 1016, 1022, 1022, 1025, 1031, 1034, 1038, 1038, 1041, 1041, 1047, 1047, 1054, 1057, 1060, 1063, 1067, 1070, 1077, 1080, 1084, 1090, 1094, 1094, 1101, 1101, 1105, 1105, 1105, 1105, 1108, 1108, 1119, 1126, 1134, 1138, 1141, 1141, 1145, 1149, 1153, 1157, 1165, 1165, 1169, 1169, 1173, 1181, 1189, 1193, 1197, 1197, 1202, 1206, 1210, 1214, 1219, 1219, 1227, 1232, 1232, 1245, 1250, 1250, 1255, 1255, 1259, 1264, 1268, 1283, 1288, 1288, 1292, 1292, 1297, 1302, 1307, 1317, 1317, 1322, 1333, 1333, 1338, 1343, 1354, 1365, 1370, 1381, 1392, 1398, 1404, 1410, 1410, 3994, 4139, 4139, 3994, 3994, 3994, 3994, 3994, 3994, 3994, 3994, 3994, 3994, 3994, 3994, 3994, 3948, 3994, 3948, 3948, 3948, 3948, 3948, 3948, 3948, 3994, 3994, 3994, 3994, 3994, 3994, 3994, 3994, 3948, 3948, 3948, 3903, 3903, 3903, 3903, 3859, 3859, 3859, 3859, 3859, 3859, 3859, 3859, 3859, 3859, 3859, 3859, 3859, 3859, 3903, 3859, 3859, 3859, 3859, 3859, 3816, 3816, 3859, 3859, 3859, 3816, 3859, 3816, 3859, 3859, 3859, 3859, 3859, 3859, 3859, 3859, 3816, 3859, 3859, 3816, 3816, 3859, 3859, 3859, 3859, 3859, 3859, 3859, 3859, 3816, 3816, 3816, 3816, 3816, 3816, 3816, 3816, 3816, 3816, 3816, 3816, 3816, 3816, 3816, 3816, 3816, 3816, 3816, 3816, 3774, 3816, 3816, 3816, 3816, 3774, 3816, 3774, 3816, 3816, 3816, 3774, 3816, 3816, 3816, 3859, 3816, 3859, 3774, 3859, 3859, 3859, 3816, 3816, 3774, 3816, 3774, 3774, 3774, 3732, 3774, 3774, 3774, 3732, 3774, 3774, 3774, 3816, 3816, 3816, 3774, 3816, 3774, 3774, 3774, 3774, 3774, 3774, 3816, 3816, 3816, 3816, 3816, 3859, 3859, 3859, 3859, 3859, 3859, 3816, 3816, 3816, 3816, 3774, 3816, 3816, 3816, 3816, 3816, 3816, 3816, 3816, 3816, 3816, 3816, 3816, 3816, 3816, 3816, 3816, 3816, 3816, 3816, 3816, 3816, 3816, 3816, 3816, 3859, 3816, 3816, 3774, 3774, 3732, 3732, 3692, 3692, 3692, 3692, 3653, 3653, 3614, 3614, 3614, 3614, 3614, 3614, 3576, 0, 0, 0, 0, 0, 0, 0, 0
521, 521, 522, 522, 522, 523, 523, 523, 523, 523, 524, 525, 525, 528, 529, 529, 529, 531, 532, 533, 533, 534, 533, 534, 533, 534, 534, 534, 539, 541, 540, 540, 541, 541, 542, 543, 543, 544, 545, 546, 547, 549, 550, 551, 552, 553, 553, 554, 554, 555, 557, 557, 560, 561, 562, 563, 564, 565, 565, 566, 567, 568, 569, 569, 571, 572, 574, 575, 576, 578, 580, 581, 582, 583, 584, 584, 584, 584, 585, 587, 587, 589, 592, 594, 595, 595, 596, 596, 596, 598, 600, 601, 602, 603, 604, 606, 607, 608, 609, 610, 613, 614, 615, 616, 618, 618, 618, 618, 618, 622, 624, 625, 627, 628, 629, 630, 630, 631, 631, 632, 635, 636, 637, 638, 638, 640, 641, 642, 643, 644, 646, 646, 647, 649, 653, 654, 654, 655, 657, 658, 659, 662, 663, 664, 666, 666, 667, 668, 670, 671, 672, 674, 676, 678, 679, 679, 680, 682, 682, 683, 687, 690, 691, 691, 693, 693, 694, 696, 697, 700, 701, 703, 704, 704, 706, 707, 708, 710, 711, 713, 713, 714, 717, 719, 723, 725, 727, 727, 728, 728, 730, 733, 733, 733, 738, 738, 739, 741, 741, 744, 747, 749, 750, 752, 752, 754, 754, 755, 759, 761, 764, 766, 766, 767, 767, 769, 771, 773, 774, 776, 778, 780, 781, 783, 787, 787, 789, 790, 790, 790, 794, 796, 805, 807, 807, 809, 811, 811, 813, 813, 815, 817, 821, 823, 829, 831, 835, 835, 835, 835, 837, 839, 841, 843, 843, 845, 847, 849, 851, 856, 860, 862, 864, 864, 867, 867, 869, 871, 878, 882, 882, 885, 887, 887, 889, 896, 896, 898, 898, 901, 901, 903, 903, 906, 913, 915, 920, 920, 923, 923, 928, 928, 930, 935, 940, 940, 943, 946, 948, 951, 954, 962, 964, 962, 964, 967, 970, 970, 973, 975, 981, 984, 987, 987, 995, 998, 1001, 1007, 1010, 1010, 1013, 1013, 1016, 1022, 1025, 1028, 1034, 1034, 1038, 1038, 1041, 1041, 1047, 1047, 1054, 1057, 1060, 1063, 1067, 1070, 1073, 1080, 1084, 1090, 1094, 1094, 1101, 1105, 1105, 1105, 1105, 1108, 1108, 1108, 1119, 1130, 1134, 1134, 1138, 1141, 1145, 1149, 1153, 1157, 1165, 1165, 1165, 1169, 1173, 1181, 1189, 1193, 1197, 1197, 1202, 1206, 1210, 1214, 1219, 1223, 1227, 1232, 1232, 1245, 1245, 1250, 1250, 1255, 1259, 1264, 1268, 1278, 1283, 1288, 1292, 1292, 1297, 1302, 1307, 1317, 1317, 1322, 1333, 1338, 1338, 1343, 1349, 1365, 1365, 1376, 1387, 1392, 1398, 1410, 1410, 1415, 4041, 4041, 4041, 4041, 4041, 3994, 3994, 3994, 3994, 3994, 3994, 3994, 3994, 3994, 3994, 3994, 3994, 3994, 3994, 3948, 3994, 3948, 3994, 3994, 3994, 3994, 3994, 3994, 3994, 3994, 3994, 3994, 3948, 3948, 3948, 3948, 3948, 3903, 3903, 3903, 3903, 3903, 3903, 3903, 3903, 3859, 3859, 3903, 3859, 3859, 3903, 3903, 3903, 3903, 3903, 3903, 3903, 3859, 3859, 3859, 3859, 3859, 3903, 3903, 3903, 3903, 3903, 3903, 3903, 3903, 3903, 3859, 3859, 3859, 3859, 3859, 3859, 3859, 3859, 3859, 3859, 3859, 3859, 3903, 3859, 3816, 3859, 3859, 3859, 3859, 3859, 3859, 3859, 3859, 3859, 3816, 3859, 3816, 3816, 3859, 3859, 3816, 3816, 3816, 3816, 3816, 3816, 3816, 3774, 3816, 3816, 3816, 3816, 3816, 3816, 3816, 3816, 3816, 3816, 3816, 3816, 3859, 3859, 3859, 3816, 3859, 3859, 3859, 3859, 3859, 3859, 3859, 3816, 3816, 3816, 3816, 3774, 3774, 3774, 3774, 3774, 3774, 3816, 3816, 3816, 3816, 3816, 3859, 3816, 3859, 3816, 3816, 3816, 3816, 3774, 3816, 3816, 3816, 3859, 3816, 3816, 3859, 3859, 3859, 3859, 3859, 3859, 3859, 3859, 3816, 3816, 3816, 3816, 3816, 3816, 3816, 3816, 3816, 3816, 3859, 3859, 3859, 3859, 3859, 3816, 3816, 3816, 3816, 3859, 3816, 3816, 3816, 3816, 3816, 3816, 3816, 3816, 3816, 3816, 3816, 3774, 3732, 3732, 3732, 3692, 3692, 3732, 3653, 3653, 3653, 3653, 3653, 3653, 3614, 3614, 3614, 0, 0, 0, 0, 0, 0, 0, 0
521, 522, 522, 522, 523, 524, 523, 524, 525, 525, 526, 525, 528, 528, 529, 529, 529, 529, 532, 532, 532, 534, 534, 534, 534, 534, 535, 538, 539, 540, 540, 540, 540, 541, 542, 543, 543, 545, 546, 546, 546, 549, 550, 551, 552, 553, 554, 554, 554, 555, 558, 558, 561, 562, 562, 563, 564, 565, 565, 565, 566, 567, 569, 570, 571, 572, 573, 574, 576, 577, 580, 581, 582, 583, 584, 584, 584, 585, 585, 588, 588, 590, 592, 594, 595, 595, 596, 596, 596, 598, 600, 601, 602, 602, 604, 606, 607, 609, 609, 610, 613, 615, 615, 616, 618, 619, 619, 619, 618, 621, 623, 624, 627, 628, 630, 630, 630, 631, 631, 632, 635, 636, 637, 637, 638, 640, 641, 641, 643, 644, 646, 647, 648, 649, 653, 654, 654, 655, 657, 658, 659, 662, 663, 664, 666, 666, 666, 668, 670, 672, 674, 676, 678, 679, 679, 679, 680, 682, 682, 684, 690, 690, 691, 691, 693, 693, 694, 696, 697, 700, 700, 703, 704, 706, 706, 707, 708, 708, 711, 713, 714, 716, 720, 719, 723, 725, 727, 727, 727, 728, 730, 733, 736, 736, 738, 738, 739, 741, 741, 744, 747, 749, 750, 752, 752, 754, 754, 755, 757, 761, 764, 766, 766, 767, 767, 769, 771, 773, 774, 776, 778, 780, 783, 785, 787, 787, 789, 790, 790, 790, 794, 798, 805, 807, 809, 809, 811, 811, 813, 813, 815, 817, 819, 823, 827, 831, 833, 835, 835, 835, 837, 839, 841, 843, 843, 845, 847, 849, 851, 856, 860, 862, 864, 862, 864, 864, 869, 871, 878, 880, 882, 885, 885, 887, 887, 896, 896, 898, 901, 901, 901, 901, 903, 906, 913, 918, 920, 920, 923, 923, 925, 928, 930, 935, 940, 943, 946, 948, 951, 954, 956, 962, 964, 962, 964, 967, 970, 970, 973, 975, 981, 984, 987, 989, 998, 1001, 1001, 1007, 1007, 1010, 1013, 1013, 1016, 1019, 1022, 1025, 1034, 1038, 1041, 1041, 1041, 1041, 1050, 1050, 1054, 1057, 1060, 1063, 1067, 1070, 1073, 1080, 1084, 1090, 1094, 1094, 1101, 1105, 1105, 1108, 1108, 1108, 1112, 1112, 1119, 1123, 1130, 1134, 1138, 1141, 1149, 1153, 1157, 1161, 1165, 1165, 1165, 1169, 1169, 1177, 1189, 1193, 1197, 1197, 1202, 1206, 1210, 1214, 1219, 1223, 1227, 1232, 1232, 1245, 1245, 1245, 1250, 1255, 1255, 1264, 1273, 1283, 1283, 1288, 1292, 1297, 1297, 1302, 1307, 1317, 1317, 1322, 1333, 1338, 1338, 1343, 1349, 1365, 1365, 1370, 1381, 1392, 1398, 1404, 1410, 1415, 1415, 1415, 4089, 4089, 4089, 4041, 4041, 4041, 4041, 4041, 3994, 3994, 3994, 4041, 4041, 3994, 4041, 4041, 3994, 3994, 4041, 3994, 3994, 3994, 3994, 3994, 4041, 4041, 3994, 3994, 3994, 3994, 3948, 3948, 3948, 3948, 3948, 3948, 3948, 3948, 3903, 3903, 3948, 3948, 3903, 3903, 3903, 3903, 3859, 3903, 3903, 3948, 3948, 3948, 3903, 3903, 3903, 3903, 3903, 3859, 3859, 3903, 3859, 3903, 3859, 3948, 3859, 3948, 3948, 3903, 3903, 3903, 3903, 3903, 3903, 3903, 3903, 3859, 3859, 3859, 3859, 3816, 3816, 3816, 3859, 3859, 3859, 3859, 3859, 3859, 3859, 3859, 3859, 3859, 3859, 3816, 3859, 3859, 3859, 3859, 3859, 3816, 3816, 3816, 3816, 3816, 3816, 3816, 3816, 3816, 3816, 3816, 3816, 3816, 3816, 3816, 3816, 3816, 3816, 3859, 3859, 3903, 3859, 3859, 3859, 3859, 3859, 3859, 3859, 3859, 3859, 3816, 3816, 3816, 3816, 3816, 3816, 3774, 3774, 3774, 3816, 3774, 3816, 3816, 3816, 3816, 3859, 3859, 3859, 3859, 3816, 3859, 3816, 3816, 3816, 3774, 3816, 3816, 3859, 3859, 3859, 3859, 3859, 3859, 3859, 3859, 3816, 3816, 3859, 3816, 3816, 3816, 3816, 3816, 3816, 3816, 3816, 3816, 3859, 3859, 3859, 3859, 3859, 3859, 3859, 3859, 3859, 3859, 3859, 3859, 3816, 3816, 3859, 3859, 3816, 3816, 3816, 3816, 3816, 3774, 3774, 3774, 3732, 3732, 3732, 3732, 3732, 3692, 3653, 3653, 3653, 3653, 3653, 3614, 3614, 3614, 0, 0, 0, 0, 0, 0, 0, 0
522, 522, 523, 523, 523, 524, 524, 525, 525, 525, 525, 525, 528, 528, 528, 529, 529, 529, 531, 532, 532, 534, 534, 535, 534, 534, 535, 538, 539, 540, 540, 540, 540, 541, 542, 543, 544, 545, 546, 547, 546, 549, 550, 551, 552, 553, 554, 554, 554, 554, 556, 556, 558, 561, 562, 563, 564, 565, 565, 565, 566, 567, 568, 569, 571, 572, 574, 575, 576, 577, 579, 580, 582, 582, 584, 584, 584, 585, 586, 588, 588, 590, 592, 594, 595, 596, 595, 596, 597, 598, 600, 601, 602, 602, 603, 604, 607, 608, 609, 610, 613, 614, 615, 616, 619, 619, 619, 619, 620, 621, 623, 624, 627, 628, 629, 629, 630, 630, 631, 632, 634, 636, 636, 637, 637, 640, 641, 642, 644, 644, 646, 647, 648, 652, 653, 654, 655, 655, 655, 657, 658, 661, 662, 664, 666, 666, 666, 668, 670, 671, 674, 676, 678, 678, 679, 679, 680, 682, 683, 686, 690, 691, 691, 691, 693, 693, 694, 697, 698, 700, 701, 703, 703, 704, 706, 707, 708, 710, 711, 713, 714, 716, 717, 719, 722, 725, 727, 727, 727, 728, 728, 731, 736, 736, 738, 739, 739, 741, 742, 744, 747, 749, 750, 752, 752, 752, 754, 755, 757, 761, 762, 766, 767, 767, 769, 771, 773, 773, 774, 776, 780, 780, 783, 785, 787, 787, 789, 789, 790, 790, 794, 798, 807, 807, 809, 811, 811, 811, 813, 815, 817, 817, 819, 823, 827, 829, 833, 833, 835, 835, 837, 839, 841, 843, 843, 845, 847, 849, 851, 856, 858, 862, 864, 862, 869, 869, 869, 871, 878, 882, 882, 885, 885, 887, 887, 891, 896, 898, 901, 901, 901, 903, 903, 906, 913, 918, 920, 920, 923, 925, 925, 928, 930, 935, 940, 940, 946, 948, 951, 954, 956, 962, 964, 964, 964, 967, 970, 970, 973, 975, 981, 984, 987, 989, 998, 1001, 1001, 1004, 1007, 1010, 1013, 1013, 1016, 1022, 1022, 1028, 1031, 1038, 1041, 1041, 1041, 1041, 1050, 1054, 1057, 1060, 1063, 1067, 1067, 1070, 1073, 1080, 1087, 1094, 1094, 1097, 1097, 1101, 1105, 1105, 1108, 1108, 1112, 1115, 1123, 1126, 1130, 1134, 1138, 1141, 1149, 1153, 1157, 1157, 1161, 1161, 1165, 1165, 1169, 1169, 1193, 1193, 1202, 1202, 1206, 1210, 1214, 1214, 1219, 1223, 1227, 1232, 1232, 1245, 1245, 1245, 1250, 1255, 1259, 1264, 1273, 1278, 1283, 1283, 1292, 1297, 1297, 1307, 1312, 1322, 1317, 1322, 1333, 1338, 1338, 1343, 1349, 1365, 1359, 1370, 1381, 1387, 1392, 1398, 1410, 1415, 1415, 1415, 4190, 4190, 4139, 4089, 4089, 4190, 4089, 4041, 4041, 4041, 4041, 4041, 4041, 4041, 4041, 4041, 4041, 3994, 4041, 3994, 3994, 3994, 3994, 3994, 3994, 4041, 3994, 3994, 3994, 3994, 3994, 3994, 3948, 3948, 3948, 3948, 3948, 3948, 3948, 3948, 3948, 3948, 3903, 3903, 3948, 3948, 3903, 3948, 3948, 3948, 3994, 3994, 3948, 3948, 3948, 3903, 3903, 3903, 3903, 3948, 3859, 3903, 3859, 3903, 3859, 3903, 3903, 3903, 3948, 3948, 3948, 3903, 3903, 3903, 3903, 3903, 3859, 3859, 3903, 3859, 3816, 3859, 3903, 3859, 3859, 3903, 3859, 3903, 3903, 3859, 3859, 3859, 3859, 3859, 3859, 3816, 3859, 3859, 3859, 3859, 3859, 3816, 3816, 3816, 3816, 3816, 3816, 3816, 3816, 3816, 3816, 3816, 3816, 3816, 3816, 3816, 3816, 3859, 3859, 3859, 3859, 3859, 3859, 3859, 3859, 3816, 3859, 3859, 3816, 3816, 3816, 3816, 3816, 3816, 3816, 3816, 3816, 3816, 3816, 3816, 3816, 3816, 3816, 3816, 3816, 3816, 3816, 3859, 3859, 3859, 3859, 3859, 3816, 3816, 3816, 3816, 3859, 3859, 3859, 3859, 3859, 3859, 3859, 3859, 3859, 3816, 3859, 3816, 3816, 3816, 3816, 3816, 3816, 3859, 3859, 3859, 3859, 3859, 3859, 3859, 3903, 3859, 3859, 3859, 3859, 3859, 3859, 3859, 3859, 3859, 3859, 3859, 3859, 3859, 3859, 3859, 3816, 3816, 3774, 3774, 3774, 3774, 3732, 3732, 3732, 3692, 3692, 3692, 3692, 3653, 3653, 3653, 3614, 3614, 0, 0, 0, 0, 0, 0, 0, 0
522, 523, 523, 523, 524, 524, 524, 525, 524, 524, 525, 525, 525, 525, 526, 527, 528, 529, 531, 531, 532, 534, 534, 535, 535, 535, 536, 538, 539, 540, 540, 540, 540, 541, 542, 543, 543, 544, 546, 547, 548, 550, 551, 552, 552, 552, 553, 553, 553, 554, 555, 556, 558, 562, 562, 564, 565, 565, 565, 565, 566, 567, 568, 569, 571, 572, 574, 575, 575, 576, 579, 580, 582, 582, 584, 584, 585, 585, 587, 589, 588, 589, 592, 594, 595, 595, 596, 596, 597, 598, 599, 601, 602, 602, 603, 604, 606, 608, 609, 610, 613, 615, 615, 618, 619, 619, 619, 619, 620, 621, 623, 625, 628, 629, 630, 630, 630, 630, 631, 631, 634, 636, 637, 638, 640, 641, 642, 643, 644, 646, 646, 647, 649, 652, 654, 654, 655, 655, 655, 657, 658, 661, 662, 664, 666, 666, 667, 668, 670, 671, 674, 676, 679, 679, 679, 679, 680, 683, 684, 688, 690, 691, 691, 691, 693, 693, 694, 696, 698, 700, 701, 701, 703, 704, 704, 707, 708, 710, 711, 714, 714, 716, 717, 719, 722, 725, 727, 727, 727, 728, 730, 731, 733, 736, 738, 739, 739, 741, 741, 746, 747, 749, 750, 752, 752, 754, 755, 755, 759, 761, 762, 766, 767, 767, 769, 771, 773, 774, 776, 776, 780, 781, 785, 785, 787, 787, 789, 790, 792, 792, 796, 802, 807, 807, 809, 811, 811, 811, 811, 813, 815, 817, 821, 823, 827, 829, 833, 835, 835, 835, 837, 839, 841, 843, 843, 843, 847, 849, 851, 856, 860, 864, 867, 864, 867, 864, 869, 871, 878, 882, 885, 882, 885, 887, 887, 889, 896, 898, 901, 901, 901, 903, 903, 906, 915, 920, 920, 920, 923, 925, 928, 928, 930, 935, 938, 940, 946, 951, 951, 954, 956, 962, 964, 964, 967, 970, 973, 973, 975, 978, 981, 984, 987, 989, 998, 1001, 1004, 1007, 1010, 1010, 1016, 1016, 1016, 1022, 1022, 1025, 1031, 1034, 1038, 1041, 1044, 1047, 1050, 1054, 1057, 1060, 1063, 1067, 1070, 1070, 1077, 1080, 1084, 1094, 1094, 1097, 1101, 1105, 1105, 1108, 1108, 1112, 1119, 1119, 1123, 1126, 1130, 1134, 1138, 1141, 1149, 1153, 1153, 1157, 1161, 1161, 1165, 1165, 1165, 1193, 1193, 1193, 1202, 1202, 1206, 1210, 1214, 1214, 1219, 1223, 1223, 1232, 1232, 1245, 1245, 1245, 1250, 1255, 1259, 1264, 1273, 1283, 1283, 1283, 1288, 1292, 1297, 1302, 1312, 1322, 1317, 1322, 1333, 1333, 1338, 1338, 1349, 1359, 1365, 1370, 1376, 1381, 1387, 1392, 1398, 1410, 1415, 1415, 1458, 4190, 4190, 4139, 4139, 4139, 4139, 4089, 4089, 4041, 4041, 4041, 4041, 4041, 4041, 4041, 3994, 3994, 4041, 3994, 3994, 3994, 4041, 3994, 4041, 4041, 3994, 3994, 3994, 3994, 3994, 4041, 3994, 3994, 3994, 3994, 3994, 3948, 3948, 3948, 3948, 3948, 3903, 3903, 3903, 3903, 3903, 3948, 3948, 3948, 3948, 3948, 3948, 3948, 3948, 3948, 3948, 3903, 3948, 3948, 3948, 3948, 3859, 3903, 3903, 3948, 3948, 3903, 3948, 3994, 3948, 3948, 3948, 3948, 3903, 3903, 3903, 3903, 3903, 3903, 3859, 3948, 3903, 3859, 3859, 3859, 3859, 3859, 3859, 3859, 3859, 3859, 3859, 3859, 3859, 3859, 3859, 3859, 3859, 3859, 3859, 3859, 3816, 3816, 3816, 3816, 3816, 3816, 3816, 3859, 3859, 3816, 3816, 3816, 3859, 3816, 3859, 3859, 3859, 3859, 3859, 3903, 3903, 3903, 3859, 3859, 3859, 3859, 3859, 3859, 3816, 3816, 3816, 3816, 3816, 3816, 3816, 3816, 3816, 3816, 3816, 3816, 3816, 3816, 3816, 3859, 3859, 3859, 3859, 3859, 3859, 3859, 3859, 3859, 3859, 3816, 3859, 3859, 3859, 3859, 3859, 3859, 3859, 3859, 3859, 3859, 3859, 3816, 3816, 3816, 3816, 3816, 3859, 3859, 3859, 3859, 3859, 3859, 3859, 3859, 3903, 3859, 3859, 3859, 3859, 3859, 3859, 3859, 3859, 3859, 3859, 3859, 3859, 3859, 3859, 3859, 3859, 3816, 3816, 3774, 3774, 3774, 3774, 3816, 3774, 3732, 3692, 3692, 3692, 3692, 3653, 3653, 3653, 3653, 0, 0, 0, 0, 0, 0, 0, 0
524, 523, 524, 524, 524, 525, 525, 525, 525, 525, 525, 525, 525, 525, 526, 527, 528, 529, 531, 532, 533, 534, 534, 535, 535, 535, 536, 539, 539, 539, 540, 540, 540, 540, 542, 543, 543, 544, 546, 549, 549, 551, 551, 552, 552, 552, 553, 553, 553, 553, 555, 556, 556, 562, 563, 564, 565, 565, 565, 565, 566, 567, 568, 570, 571, 572, 574, 575, 575, 576, 578, 580, 581, 582, 584, 585, 585, 586, 587, 588, 588, 589, 592, 593, 594, 595, 596, 596, 597, 598, 600, 601, 602, 602, 603, 604, 606, 607, 608, 610, 613, 615, 616, 618, 619, 619, 619, 620, 621, 622, 623, 625, 628, 629, 630, 630, 630, 630, 631, 631, 634, 634, 635, 637, 638, 640, 642, 644, 646, 646, 647, 647, 649, 653, 654, 654, 655, 655, 655, 657, 658, 661, 662, 664, 666, 667, 667, 668, 670, 671, 674, 676, 678, 678, 678, 679, 680, 682, 684, 687, 690, 690, 691, 691, 693, 693, 696, 697, 698, 700, 701, 701, 703, 704, 706, 707, 708, 710, 713, 714, 714, 716, 719, 720, 722, 725, 725, 727, 727, 728, 728, 731, 733, 736, 738, 739, 739, 741, 741, 744, 747, 750, 752, 752, 754, 754, 755, 755, 759, 761, 764, 766, 769, 769, 771, 771, 773, 774, 776, 778, 781, 785, 787, 787, 787, 789, 789, 790, 792, 794, 798, 800, 805, 807, 809, 809, 811, 811, 811, 813, 817, 819, 823, 825, 827, 829, 831, 833, 835, 837, 839, 841, 841, 843, 843, 843, 845, 849, 854, 858, 860, 867, 867, 867, 867, 869, 871, 871, 878, 882, 882, 882, 885, 887, 887, 889, 896, 898, 903, 903, 903, 903, 906, 908, 915, 920, 920, 920, 923, 925, 928, 928, 930, 935, 938, 940, 946, 951, 951, 954, 956, 962, 964, 964, 964, 970, 970, 973, 975, 975, 978, 981, 987, 989, 1004, 1007, 1007, 1010, 1010, 1010, 1016, 1016, 1016, 1019, 1022, 1025, 1031, 1034, 1038, 1041, 1047, 1047, 1050, 1054, 1060, 1060, 1063, 1067, 1070, 1070, 1073, 1080, 1084, 1090, 1094, 1094, 1097, 1105, 1105, 1108, 1108, 1115, 1119, 1119, 1123, 1130, 1130, 1134, 1138, 1141, 1149, 1153, 1153, 1153, 1161, 1161, 1165, 1165, 1165, 1189, 1189, 1202, 1202, 1206, 1210, 1214, 1214, 1214, 1219, 1223, 1227, 1232, 1236, 1245, 1245, 1245, 1250, 1255, 1259, 1264, 1273, 1283, 1283, 1283, 1292, 1297, 1302, 1307, 1312, 1322, 1317, 1322, 1328, 1333, 1338, 1338, 1349, 1359, 1365, 1370, 1376, 1381, 1381, 1387, 1392, 1404, 1404, 1404, 1458, 1458, 1458, 1464, 1464, 1464, 4139, 4139, 4089, 4089, 4089, 4089, 4089, 4089, 4041, 4041, 4041, 3994, 4041, 3994, 4041, 4041, 4041, 4041, 4041, 4041, 4041, 4041, 3994, 3994, 3994, 4041, 3994, 3994, 3994, 3994, 3994, 3994, 3994, 3994, 3948, 3994, 3948, 3948, 3994, 3948, 3948, 3948, 3948, 3948, 3948, 3948, 3948, 3948, 3994, 3948, 3948, 3948, 3994, 3994, 3994, 3948, 3948, 3948, 3948, 3994, 3994, 3948, 3948, 3994, 3994, 3994, 3948, 3948, 3948, 3948, 3903, 3903, 3903, 3903, 3859, 3948, 3948, 3859, 3859, 3903, 3859, 3903, 3903, 3903, 3859, 3903, 3903, 3859, 3903, 3859, 3859, 3859, 3859, 3859, 3859, 3859, 3859, 3859, 3816, 3816, 3816, 3816, 3859, 3859, 3859, 3859, 3859, 3859, 3903, 3903, 3903, 3859, 3903, 3903, 3903, 3903, 3903, 3903, 3903, 3903, 3903, 3859, 3859, 3859, 3859, 3859, 3859, 3859, 3816, 3816, 3816, 3816, 3816, 3816, 3816, 3816, 3816, 3859, 3859, 3859, 3859, 3859, 3859, 3859, 3859, 3859, 3859, 3859, 3903, 3903, 3859, 3903, 3903, 3903, 3903, 3903, 3859, 3859, 3859, 3859, 3859, 3859, 3816, 3816, 3816, 3816, 3859, 3859, 3859, 3859, 3903, 3859, 3903, 3903, 3903, 3903, 3859, 3859, 3903, 3903, 3903, 3903, 3859, 3859, 3903, 3903, 3903, 3903, 3859, 3859, 3859, 3816, 3816, 3774, 3774, 3774, 3774, 3774, 3774, 3732, 3732, 3732, 3732, 3692, 3692, 3692, 3653, 3653, 0, 0, 0, 0, 0, 0, 0, 0
525, 524, 524, 524, 525, 525, 525, 525, 525, 525, 525, 525, 525, 526, 526, 527, 528, 529, 531, 532, 533, 534, 534, 534, 535, 535, 536, 539, 538, 539, 540, 540, 540, 540, 541, 542, 543, 543, 548, 549, 550, 550, 552, 552, 552, 553, 553, 553, 553, 553, 554, 556, 556, 561, 562, 564, 565, 565, 566, 566, 567, 567, 568, 569, 571, 572, 575, 576, 576, 576, 578, 579, 580, 582, 584, 585, 586, 586, 587, 588, 588, 589, 592, 593, 594, 595, 595, 596, 597, 598, 600, 601, 602, 602, 603, 604, 606, 608, 609, 610, 613, 614, 616, 618, 618, 619, 620, 620, 621, 622, 623, 627, 628, 628, 629, 629, 629, 630, 630, 631, 632, 636, 637, 638, 640, 641, 643, 644, 646, 646, 647, 647, 648, 653, 654, 654, 655, 655, 655, 657, 659, 661, 662, 663, 666, 666, 666, 668, 670, 671, 674, 676, 678, 678, 678, 679, 680, 683, 683, 687, 690, 690, 691, 691, 693, 694, 696, 697, 698, 700, 700, 701, 703, 704, 706, 708, 710, 711, 713, 716, 716, 717, 719, 722, 723, 725, 725, 727, 727, 728, 728, 731, 733, 733, 738, 738, 739, 741, 741, 744, 747, 749, 750, 752, 754, 754, 754, 755, 759, 761, 764, 766, 769, 769, 771, 771, 773, 774, 776, 780, 781, 785, 787, 787, 787, 789, 790, 792, 796, 796, 798, 802, 803, 805, 807, 809, 811, 811, 811, 813, 817, 821, 825, 825, 827, 829, 831, 833, 835, 837, 839, 841, 841, 843, 845, 843, 845, 849, 854, 858, 862, 867, 867, 867, 867, 869, 871, 873, 878, 882, 885, 885, 885, 887, 887, 889, 896, 901, 903, 903, 903, 906, 906, 908, 913, 923, 923, 923, 923, 925, 928, 930, 930, 935, 938, 940, 943, 951, 951, 954, 954, 956, 962, 962, 964, 967, 970, 973, 975, 978, 978, 981, 984, 989, 1001, 1007, 1010, 1010, 1010, 1013, 1016, 1016, 1016, 1019, 1022, 1025, 1028, 1034, 1038, 1041, 1047, 1050, 1050, 1057, 1060, 1063, 1067, 1067, 1070, 1073, 1077, 1080, 1084, 1090, 1094, 1094, 1101, 1105, 1105, 1108, 1108, 1115, 1119, 1119, 1123, 1134, 1134, 1134, 1138, 1141, 1149, 1153, 1157, 1157, 1165, 1165, 1165, 1169, 1169, 1189, 1189, 1189, 1202, 1210, 1210, 1214, 1214, 1214, 1219, 1223, 1227, 1236, 1241, 1245, 1245, 1250, 1250, 1255, 1259, 1264, 1273, 1283, 1283, 1283, 1292, 1302, 1302, 1307, 1312, 1322, 1322, 1328, 1333, 1338, 1338, 1343, 1349, 1359, 1365, 1370, 1376, 1381, 1381, 1387, 1392, 1404, 1410, 1415, 1415, 1458, 1458, 1464, 1464, 1464, 4139, 4139, 4139, 4139, 4139, 4139, 4139, 4089, 4089, 4041, 4041, 3994, 4041, 3994, 4041, 4041, 4041, 4041, 4041, 4041, 4041, 4041, 3994, 3994, 4041, 4041, 4041, 4041, 4041, 4041, 4041, 3994, 3994, 3994, 3994, 3994, 3948, 3948, 3994, 3994, 3994, 3994, 3994, 3994, 3994, 3994, 3948, 3948, 3994, 3948, 3948, 3994, 3994, 3994, 3994, 3994, 3994, 3994, 3994, 3994, 3994, 3994, 3994, 3948, 3994, 3948, 3948, 3948, 3948, 3948, 3994, 3903, 3903, 3903, 3994, 3994, 3948, 3903, 3903, 3903, 3903, 3948, 3948, 3903, 3903, 3948, 3903, 3948, 3903, 3903, 3903, 3859, 3903, 3859, 3903, 3903, 3859, 3859, 3859, 3859, 3859, 3859, 3859, 3903, 3859, 3859, 3859, 3903, 3859, 3859, 3903, 3859, 3903, 3903, 3903, 3903, 3903, 3903, 3903, 3948, 3948, 3948, 3903, 3859, 3859, 3859, 3859, 3859, 3816, 3859, 3816, 3816, 3816, 3816, 3816, 3816, 3816, 3859, 3859, 3859, 3859, 3903, 3903, 3903, 3903, 3903, 3903, 3859, 3903, 3948, 3903, 3903, 3903, 3903, 3903, 3903, 3859, 3859, 3859, 3859, 3859, 3859, 3859, 3859, 3859, 3859, 3859, 3903, 3903, 3903, 3948, 3903, 3948, 3948, 3948, 3948, 3903, 3903, 3903, 3948, 3948, 3948, 3903, 3903, 3948, 3948, 3903, 3903, 3903, 3859, 3816, 3816, 3816, 3774, 3774, 3816, 3816, 3816, 3816, 3774, 3774, 3732, 3732, 3732, 3692, 3692, 3653, 3653, 0, 0, 0, 0, 0, 0, 0, 0
525, 524, 524, 525, 525, 525, 525, 525, 525, 525, 526, 525, 525, 525, 526, 526, 527, 527, 530, 533, 534, 534, 534, 535, 535, 536, 537, 539, 538, 539, 540, 540, 540, 540, 542, 543, 544, 546, 547, 548, 549, 550, 551, 552, 552, 552, 553, 554, 554, 554, 558, 560, 561, 561, 562, 564, 565, 565, 566, 566, 567, 567, 568, 569, 571, 572, 575, 576, 576, 577, 578, 579, 580, 582, 584, 586, 586, 587, 587, 588, 588, 589, 591, 592, 593, 594, 595, 596, 597, 598, 600, 601, 602, 602, 603, 604, 606, 608, 609, 610, 612, 614, 615, 618, 618, 618, 619, 619, 622, 623, 625, 627, 628, 628, 629, 629, 629, 630, 630, 631, 634, 634, 638, 638, 640, 642, 644, 646, 646, 647, 647, 648, 649, 652, 653, 654, 655, 655, 655, 657, 659, 661, 662, 664, 666, 667, 666, 668, 670, 671, 674, 676, 678, 678, 678, 679, 682, 684, 684, 687, 688, 688, 691, 691, 693, 694, 696, 697, 698, 700, 701, 701, 703, 706, 706, 708, 710, 711, 714, 716, 716, 717, 720, 722, 723, 723, 725, 727, 727, 728, 730, 731, 733, 736, 738, 739, 739, 741, 742, 746, 747, 749, 750, 752, 754, 754, 755, 757, 759, 761, 764, 766, 769, 769, 773, 773, 773, 774, 774, 780, 783, 785, 787, 787, 789, 789, 790, 792, 796, 796, 798, 802, 803, 805, 807, 809, 811, 811, 811, 813, 819, 821, 825, 825, 827, 829, 831, 833, 835, 835, 837, 839, 841, 843, 845, 845, 847, 849, 854, 858, 862, 864, 867, 867, 867, 867, 871, 875, 878, 880, 882, 885, 885, 887, 887, 887, 891, 901, 906, 903, 903, 906, 906, 908, 913, 923, 923, 920, 923, 925, 930, 930, 933, 938, 938, 943, 946, 951, 951, 951, 954, 956, 962, 964, 967, 970, 973, 973, 975, 978, 981, 981, 984, 987, 1007, 1010, 1010, 1010, 1010, 1010, 1016, 1016, 1019, 1019, 1022, 1025, 1028, 1034, 1038, 1041, 1047, 1050, 1050, 1057, 1060, 1063, 1067, 1070, 1070, 1073, 1077, 1080, 1080, 1084, 1090, 1094, 1097, 1105, 1108, 1108, 1108, 1115, 1119, 1119, 1123, 1134, 1134, 1134, 1138, 1141, 1149, 1153, 1157, 1161, 1165, 1165, 1169, 1169, 1169, 1189, 1189, 1189, 1206, 1210, 1214, 1214, 1214, 1219, 1219, 1223, 1227, 1236, 1241, 1245, 1250, 1250, 1250, 1255, 1264, 1268, 1273, 1278, 1283, 1288, 1292, 1302, 1302, 1312, 1317, 1322, 1322, 1328, 1333, 1338, 1338, 1343, 1349, 1359, 1365, 1370, 1376, 1381, 1381, 1387, 1392, 1398, 1404, 1404, 1404, 1458, 1458, 1464, 1464, 1464, 1458, 4190, 4190, 4190, 4190, 4190, 4139, 4139, 4139, 4089, 4041, 4041, 4041, 3994, 4041, 4041, 4041, 4041, 4041, 4041, 4041, 4041, 3994, 3994, 3994, 4041, 4041, 4041, 4041, 4041, 4089, 4089, 4041, 4041, 4041, 4041, 3994, 3994, 3994, 3994, 3994, 3994, 3994, 3994, 3994, 3994, 3994, 3994, 3994, 3994, 3994, 3994, 3994, 3994, 3994, 3994, 3994, 3994, 3994, 3994, 3994, 3994, 3994, 3994, 3994, 3994, 3948, 3948, 3948, 3948, 3994, 3948, 3994, 3948, 4041, 3994, 3994, 3948, 3948, 3948, 3903, 3948, 3948, 3948, 3903, 3948, 3948, 3948, 3948, 3903, 3903, 3903, 3903, 3903, 3903, 3903, 3903, 3859, 3859, 3859, 3859, 3903, 3903, 3903, 3903, 3903, 3859, 3903, 3859, 3903, 3903, 3903, 3903, 3903, 3903, 3903, 3903, 3903, 3948, 3903, 3903, 3994, 3903, 3859, 3859, 3859, 3859, 3859, 3859, 3859, 3816, 3859, 3859, 3816, 3816, 3859, 3859, 3859, 3859, 3903, 3903, 3903, 3903, 3948, 3903, 3903, 3903, 3903, 3948, 3948, 3903, 3903, 3903, 3948, 3903, 3903, 3903, 3903, 3903, 3859, 3903, 3903, 3859, 3859, 3859, 3859, 3859, 3903, 3903, 3948, 3948, 3948, 3948, 3948, 3948, 3948, 3903, 3903, 3903, 3948, 3948, 3948, 3948, 3948, 3948, 3948, 3948, 3948, 3903, 3903, 3859, 3816, 3816, 3816, 3816, 3816, 3816, 3816, 3816, 3816, 3774, 3774, 3774, 3732, 3692, 3692, 3692, 3692, 0, 0, 0, 0, 0, 0, 0, 0
524, 524, 524, 524, 524, 525, 524, 524, 524, 525, 525, 525, 525, 525, 525, 525, 526, 526, 530, 534, 535, 535, 535, 536, 536, 536, 538, 539, 539, 540, 540, 540, 540, 540, 542, 543, 543, 546, 546, 548, 549, 550, 550, 552, 551, 552, 553, 554, 556, 558, 559, 560, 561, 562, 562, 564, 565, 565, 565, 565, 567, 568, 569, 570, 571, 572, 573, 575, 575, 576, 578, 579, 580, 582, 584, 585, 586, 587, 588, 588, 588, 589, 591, 592, 593, 595, 595, 595, 596, 598, 600, 601, 602, 603, 603, 604, 604, 608, 608, 610, 612, 613, 615, 616, 618, 618, 618, 619, 623, 624, 627, 628, 628, 628, 629, 629, 629, 630, 631, 632, 634, 634, 642, 641, 641, 643, 644, 646, 646, 647, 647, 649, 650, 653, 653, 654, 655, 655, 655, 657, 661, 662, 662, 664, 666, 667, 667, 670, 670, 671, 672, 674, 678, 678, 679, 682, 684, 686, 686, 687, 688, 690, 691, 691, 693, 694, 697, 698, 698, 700, 701, 701, 704, 706, 707, 708, 710, 710, 713, 716, 717, 719, 720, 722, 722, 723, 725, 727, 727, 728, 730, 733, 733, 736, 739, 739, 741, 742, 744, 746, 747, 749, 750, 750, 752, 752, 754, 757, 759, 762, 764, 766, 769, 769, 771, 773, 773, 774, 776, 780, 783, 785, 787, 789, 789, 790, 792, 794, 796, 798, 800, 802, 803, 805, 807, 809, 811, 811, 811, 815, 819, 823, 825, 825, 827, 829, 829, 833, 833, 835, 837, 839, 841, 843, 845, 845, 847, 851, 854, 858, 862, 864, 867, 867, 869, 869, 871, 875, 878, 882, 882, 885, 885, 887, 887, 889, 894, 901, 906, 903, 903, 906, 906, 908, 910, 920, 920, 923, 923, 928, 930, 930, 933, 935, 938, 940, 946, 951, 951, 951, 954, 956, 962, 962, 967, 970, 973, 975, 978, 978, 981, 981, 984, 989, 1007, 1007, 1010, 1010, 1010, 1010, 1016, 1016, 1019, 1022, 1022, 1025, 1028, 1034, 1038, 1041, 1047, 1047, 1050, 1057, 1063, 1067, 1070, 1070, 1073, 1077, 1077, 1080, 1080, 1084, 1090, 1094, 1097, 1101, 1105, 1105, 1108, 1115, 1119, 1123, 1130, 1134, 1134, 1134, 1138, 1141, 1149, 1153, 1157, 1157, 1165, 1165, 1169, 1173, 1173, 1193, 1193, 1197, 1202, 1206, 1214, 1214, 1214, 1214, 1219, 1223, 1227, 1236, 1245, 1245, 1245, 1250, 1255, 1255, 1264, 1268, 1273, 1283, 1283, 1288, 1292, 1302, 1307, 1312, 1317, 1322, 1328, 1328, 1333, 1338, 1338, 1343, 1354, 1359, 1370, 1370, 1376, 1381, 1381, 1387, 1392, 1398, 1404, 1404, 1404, 1458, 1458, 1464, 1464, 1464, 1464, 4190, 4190, 4190, 4241, 4190, 4190, 4190, 4190, 4139, 4089, 4041, 4041, 4041, 4041, 4041, 4041, 4041, 4041, 4041, 4041, 4041, 3994, 3994, 4041, 4041, 4041, 4041, 4041, 4089, 4139, 4139, 4089, 4089, 4041, 4089, 4041, 4041, 4041, 3994, 3994, 3994, 3994, 3994, 3994, 3994, 3994, 3994, 3994, 3994, 3994, 3994, 3994, 3994, 3994, 3994, 3994, 3994, 3994, 3994, 4041, 3994, 3994, 3994, 3994, 3994, 3994, 3994, 3994, 3994, 3994, 3994, 3948, 3948, 3994, 4041, 3994, 3948, 3948, 3948, 3994, 3994, 3948, 3948, 3948, 3948, 3994, 3948, 3994, 3903, 3903, 3948, 3948, 3948, 3948, 3948, 3948, 3903, 3948, 3903, 3903, 3948, 3903, 3948, 3948, 3994, 3948, 3948, 3948, 3903, 3948, 3903, 3903, 3903, 3903, 3903, 3903, 3903, 3903, 3903, 3948, 3994, 3948, 3859, 3903, 3859, 3859, 3859, 3903, 3903, 3859, 3859, 3859, 3859, 3859, 3859, 3859, 3859, 3903, 3903, 3903, 3903, 3903, 3948, 3903, 3903, 3948, 3948, 3948, 3994, 3948, 3948, 3948, 3948, 3948, 3903, 3903, 3903, 3903, 3903, 3903, 3903, 3903, 3903, 3903, 3903, 3903, 3903, 3903, 3948, 3994, 3948, 3948, 3948, 3994, 3948, 3948, 3948, 3948, 3948, 3994, 3994, 3994, 3948, 3994, 3994, 3948, 3948, 3903, 3903, 3859, 3859, 3859, 3859, 3816, 3859, 3859, 3859, 3859, 3816, 3816, 3774, 3774, 3732, 3732, 3732, 3692, 3692, 0, 0, 0, 0, 0, 0, 0, 0
524, 524, 524, 524, 524, 524, 524, 523, 523, 524, 526, 525, 526, 526, 526, 525, 525, 526, 534, 535, 536, 535, 536, 536, 536, 537, 539, 539, 540, 540, 540, 540, 540, 541, 542, 543, 544, 546, 548, 548, 549, 550, 550, 552, 551, 552, 554, 554, 555, 559, 560, 560, 561, 562, 562, 564, 565, 565, 565, 565, 567, 568, 569, 570, 570, 571, 574, 575, 575, 578, 579, 579, 580, 583, 585, 586, 586, 587, 588, 588, 588, 589, 591, 593, 594, 595, 596, 596, 597, 597, 600, 601, 603, 603, 604, 604, 606, 608, 608, 611, 612, 613, 615, 616, 616, 618, 618, 619, 616, 624, 627, 628, 628, 628, 629, 629, 629, 630, 631, 635, 635, 635, 642, 642, 643, 644, 646, 646, 646, 647, 648, 649, 650, 653, 653, 654, 655, 655, 657, 657, 661, 662, 662, 664, 667, 668, 668, 670, 670, 671, 671, 672, 676, 678, 680, 680, 686, 687, 687, 688, 688, 690, 691, 691, 693, 694, 697, 698, 698, 700, 701, 703, 704, 706, 707, 710, 710, 711, 714, 716, 717, 719, 720, 722, 722, 723, 725, 727, 727, 728, 730, 733, 734, 736, 739, 739, 741, 742, 744, 746, 747, 749, 749, 750, 752, 754, 755, 759, 761, 762, 766, 767, 771, 771, 773, 773, 773, 774, 776, 778, 783, 785, 787, 789, 789, 790, 792, 792, 794, 796, 798, 802, 803, 805, 809, 809, 811, 811, 813, 817, 819, 823, 825, 825, 827, 827, 829, 833, 833, 835, 837, 837, 841, 841, 845, 845, 849, 851, 856, 858, 860, 862, 864, 867, 869, 869, 873, 875, 878, 882, 882, 885, 885, 887, 887, 889, 894, 901, 906, 903, 906, 906, 906, 908, 908, 915, 923, 923, 923, 925, 933, 933, 933, 938, 938, 940, 946, 948, 948, 951, 954, 959, 962, 964, 967, 970, 973, 975, 978, 978, 981, 984, 987, 989, 1007, 1007, 1010, 1010, 1010, 1010, 1016, 1016, 1019, 1022, 1022, 1025, 1028, 1031, 1034, 1038, 1044, 1047, 1050, 1057, 1063, 1067, 1070, 1070, 1073, 1073, 1077, 1080, 1080, 1084, 1090, 1094, 1097, 1105, 1105, 1105, 1108, 1119, 1119, 1123, 1130, 1134, 1134, 1134, 1138, 1141, 1145, 1149, 1153, 1157, 1165, 1165, 1173, 1177, 1185, 1193, 1193, 1197, 1202, 1206, 1210, 1214, 1214, 1214, 1219, 1223, 1227, 1236, 1245, 1245, 1250, 1250, 1255, 1259, 1264, 1268, 1273, 1283, 1283, 1288, 1297, 1302, 1307, 1317, 1317, 1322, 1328, 1328, 1333, 1338, 1343, 1349, 1354, 1359, 1365, 1370, 1370, 1376, 1381, 1387, 1392, 1398, 1398, 1404, 1404, 1421, 1421, 1464, 1464, 1464, 1464, 1464, 1464, 4241, 4241, 4241, 4190, 4190, 4190, 4190, 4139, 4089, 4089, 4041, 4041, 4041, 4089, 4089, 4089, 4089, 4089, 4041, 4041, 4041, 4041, 4041, 4041, 4089, 4089, 4139, 4139, 4139, 4139, 4139, 4139, 4139, 4089, 4041, 4041, 4041, 4041, 4041, 4041, 4041, 3994, 3994, 3994, 3994, 3994, 3994, 3994, 3994, 4041, 4041, 4041, 4041, 3994, 3994, 3994, 4041, 4041, 4041, 4041, 4041, 3994, 3994, 3994, 3994, 3994, 3994, 3994, 3994, 3994, 3994, 3994, 3994, 3994, 3994, 3994, 3994, 3994, 3994, 3994, 3948, 3948, 3994, 3994, 3994, 3994, 3948, 3948, 3948, 3948, 3948, 3948, 3948, 3948, 3948, 3948, 3948, 3903, 3948, 3948, 3948, 3994, 3994, 3948, 3948, 3948, 3948, 3948, 3903, 3903, 3903, 3903, 3903, 3903, 3948, 3948, 3903, 3948, 3994, 3948, 3903, 3994, 3903, 3859, 3903, 3903, 3903, 3903, 3948, 3903, 3859, 3903, 3903, 3903, 3859, 3903, 3903, 3903, 3903, 3903, 3948, 3903, 3903, 3948, 3948, 3948, 3994, 3994, 3994, 3994, 3994, 3994, 3948, 3948, 3948, 3948, 3903, 3903, 3903, 3948, 3903, 3948, 3948, 3948, 3994, 3994, 3994, 3994, 3994, 3994, 3948, 3994, 3948, 3948, 3948, 3994, 3994, 3994, 3994, 3994, 3994, 3994, 3994, 3994, 3994, 3948, 3948, 3903, 3859, 3859, 3859, 3859, 3859, 3859, 3816, 3816, 3816, 3816, 3816, 3816, 3774, 3774, 3774, 3732, 3692, 0, 0, 0, 0, 0, 0, 0, 0
523, 523, 523, 523, 524, 524, 524, 523, 523, 524, 527, 527, 527, 526, 527, 528, 528, 529, 532, 535, 535, 535, 536, 536, 536, 538, 539, 540, 540, 540, 540, 540, 540, 540, 542, 543, 544, 548, 548, 548, 549, 550, 550, 552, 551, 553, 554, 559, 557, 560, 560, 560, 561, 562, 562, 564, 564, 565, 565, 566, 567, 568, 569, 570, 571, 572, 575, 576, 576, 578, 579, 579, 580, 584, 585, 587, 586, 587, 588, 588, 588, 588, 592, 593, 594, 595, 596, 596, 597, 597, 600, 601, 603, 603, 603, 604, 604, 606, 608, 609, 612, 613, 615, 616, 616, 618, 618, 618, 618, 625, 627, 628, 628, 628, 628, 629, 629, 632, 634, 635, 635, 636, 637, 643, 643, 644, 646, 646, 646, 646, 647, 649, 650, 653, 653, 654, 655, 655, 655, 657, 659, 661, 662, 664, 666, 668, 667, 668, 670, 671, 671, 674, 676, 678, 679, 680, 684, 686, 686, 687, 687, 688, 690, 691, 693, 694, 696, 697, 698, 700, 701, 701, 703, 706, 707, 708, 710, 711, 714, 716, 717, 719, 720, 722, 722, 723, 725, 727, 728, 728, 730, 733, 734, 736, 739, 739, 741, 741, 744, 746, 747, 749, 749, 752, 754, 754, 757, 757, 761, 762, 764, 767, 771, 771, 773, 773, 774, 774, 776, 778, 783, 785, 787, 787, 789, 790, 790, 792, 794, 796, 798, 802, 803, 807, 809, 809, 809, 811, 813, 817, 819, 823, 825, 825, 827, 827, 829, 831, 835, 835, 837, 839, 841, 843, 845, 845, 849, 851, 854, 858, 860, 862, 864, 867, 867, 869, 873, 878, 878, 882, 885, 885, 887, 889, 889, 891, 896, 898, 903, 903, 903, 906, 906, 908, 908, 915, 920, 918, 925, 930, 933, 933, 935, 938, 938, 940, 943, 948, 948, 948, 951, 956, 962, 964, 967, 973, 973, 975, 978, 978, 984, 987, 989, 989, 989, 1007, 1010, 1010, 1010, 1013, 1016, 1019, 1022, 1022, 1025, 1025, 1028, 1031, 1034, 1034, 1041, 1044, 1047, 1060, 1067, 1067, 1073, 1073, 1073, 1073, 1077, 1080, 1080, 1084, 1090, 1097, 1105, 1105, 1105, 1108, 1108, 1115, 1115, 1119, 1130, 1134, 1134, 1134, 1138, 1141, 1145, 1149, 1153, 1157, 1165, 1165, 1173, 1181, 1185, 1193, 1197, 1197, 1202, 1206, 1210, 1214, 1214, 1214, 1219, 1223, 1227, 1236, 1245, 1250, 1250, 1250, 1255, 1259, 1268, 1268, 1273, 1283, 1288, 1292, 1302, 1307, 1312, 1317, 1322, 1322, 1328, 1328, 1333, 1338, 1343, 1349, 1354, 1359, 1365, 1370, 1370, 1376, 1381, 1387, 1392, 1398, 1398, 1404, 1404, 1421, 1439, 1458, 1464, 1464, 1464, 1464, 4190, 4241, 4190, 4241, 4241, 4241, 4241, 4190, 4139, 4089, 4089, 4041, 4089, 4041, 4089, 4089, 4139, 4139, 4139, 4041, 4089, 4041, 4041, 4041, 4041, 4139, 4139, 4139, 4190, 4139, 4139, 4139, 4190, 4139, 4089, 4089, 4041, 4041, 4041, 4041, 4041, 4041, 4041, 3994, 4041, 4041, 4041, 4041, 4041, 4041, 4041, 4089, 4041, 4041, 4041, 4041, 4041, 4041, 4041, 4041, 4041, 4041, 4041, 4041, 4041, 3994, 4041, 4041, 4041, 3994, 3994, 3994, 3994, 3994, 3994, 3994, 3994, 3994, 3994, 4041, 3994, 3994, 3994, 3994, 3994, 3994, 3994, 3994, 3994, 3994, 3994, 3948, 3994, 3948, 3994, 3994, 3994, 3994, 3948, 3994, 3994, 3994, 3994, 3994, 3994, 3994, 3948, 3948, 3948, 3948, 3948, 3903, 3903, 3903, 3903, 3948, 3948, 3948, 3948, 3994, 3994, 3994, 3994, 3994, 3903, 3903, 3948, 3948, 3948, 3994, 3948, 3948, 3948, 3948, 3948, 3859, 3948, 3903, 3903, 3903, 3903, 3948, 3948, 3948, 3948, 3948, 3948, 3994, 3994, 3994, 3994, 3994, 3994, 3948, 3948, 3948, 3948, 3903, 3903, 3903, 3948, 3948, 3994, 3994, 3994, 3994, 3994, 3994, 3994, 3994, 3994, 3994, 3994, 3994, 3994, 3994, 3994, 3994, 3994, 3994, 3994, 3994, 3994, 3994, 3994, 3994, 3994, 3948, 3948, 3903, 3903, 3859, 3859, 3859, 3859, 3859, 3859, 3859, 3816, 3816, 3816, 3816, 3774, 3732, 3732, 3692, 0, 0, 0, 0, 0, 0, 0, 0
523, 523, 523, 523, 523, 523, 523, 523, 523, 524, 526, 526, 526, 526, 527, 528, 528, 529, 533, 535, 535, 535, 536, 536, 536, 537, 539, 540, 540, 540, 540, 540, 541, 540, 542, 544, 545, 549, 549, 549, 549, 550, 550, 550, 551, 553, 556, 559, 559, 560, 560, 561, 561, 562, 562, 564, 564, 564, 565, 566, 567, 569, 570, 571, 572, 573, 575, 577, 578, 578, 579, 579, 580, 584, 586, 587, 587, 587, 588, 588, 588, 589, 592, 593, 594, 595, 596, 596, 597, 598, 600, 601, 603, 603, 604, 604, 606, 606, 607, 609, 611, 612, 615, 616, 616, 618, 618, 616, 620, 624, 627, 627, 628, 628, 629, 630, 630, 634, 635, 636, 636, 637, 640, 643, 644, 644, 646, 646, 646, 646, 647, 649, 650, 652, 653, 654, 654, 655, 655, 657, 659, 661, 662, 664, 666, 668, 668, 670, 670, 671, 671, 672, 676, 678, 679, 680, 684, 686, 686, 687, 687, 688, 690, 691, 693, 694, 697, 697, 698, 700, 701, 703, 704, 706, 707, 708, 710, 710, 711, 717, 719, 720, 720, 722, 722, 723, 725, 727, 728, 728, 730, 733, 733, 734, 734, 739, 741, 742, 744, 746, 747, 750, 750, 752, 754, 754, 757, 757, 761, 762, 764, 767, 771, 771, 773, 773, 774, 774, 776, 780, 783, 785, 787, 787, 789, 790, 792, 794, 796, 798, 800, 803, 803, 807, 807, 809, 809, 811, 813, 817, 819, 823, 825, 825, 827, 829, 831, 833, 835, 835, 837, 839, 841, 843, 847, 847, 851, 851, 854, 856, 858, 860, 864, 867, 869, 871, 875, 878, 878, 882, 885, 885, 887, 889, 891, 894, 896, 898, 901, 901, 903, 906, 906, 908, 910, 913, 918, 918, 923, 930, 933, 933, 933, 938, 938, 940, 943, 946, 946, 948, 948, 956, 962, 964, 967, 970, 973, 973, 975, 978, 984, 987, 989, 989, 989, 1007, 1010, 1007, 1010, 1010, 1016, 1019, 1022, 1022, 1025, 1028, 1028, 1031, 1034, 1034, 1041, 1041, 1047, 1057, 1067, 1067, 1073, 1073, 1073, 1073, 1077, 1077, 1080, 1080, 1097, 1101, 1105, 1105, 1108, 1108, 1108, 1112, 1119, 1119, 1126, 1134, 1134, 1134, 1138, 1141, 1145, 1149, 1153, 1161, 1165, 1169, 1173, 1177, 1185, 1189, 1193, 1197, 1202, 1206, 1210, 1214, 1214, 1214, 1219, 1223, 1223, 1236, 1245, 1250, 1250, 1255, 1259, 1259, 1264, 1268, 1273, 1283, 1288, 1292, 1302, 1307, 1312, 1317, 1322, 1322, 1328, 1328, 1333, 1338, 1343, 1354, 1354, 1359, 1365, 1370, 1370, 1376, 1381, 1387, 1392, 1398, 1404, 1404, 1410, 1421, 1427, 1427, 1464, 1470, 1470, 1470, 1470, 1483, 4241, 4241, 4241, 4241, 4190, 4190, 4139, 4139, 4139, 4089, 4089, 4089, 4089, 4139, 4139, 4139, 4139, 4139, 4139, 4139, 4139, 4139, 4139, 4139, 4139, 4190, 4190, 4190, 4190, 4190, 4190, 4139, 4190, 4190, 4041, 4041, 4089, 4089, 4041, 4041, 4041, 4041, 4041, 4089, 4041, 4041, 4041, 4041, 4041, 4089, 4041, 4041, 4041, 4041, 4041, 4089, 4089, 4089, 4089, 4139, 4089, 4089, 4089, 4041, 4041, 4041, 4041, 4041, 4041, 3994, 3994, 3994, 3994, 3994, 3994, 3994, 3994, 4041, 3994, 3994, 3994, 3994, 3994, 3994, 3994, 3994, 3994, 3994, 3994, 3994, 3994, 3994, 3994, 3994, 3994, 3994, 3994, 3994, 3994, 3994, 3994, 3994, 3994, 3994, 3994, 3948, 3994, 3948, 3948, 3903, 3903, 3903, 3903, 3903, 3903, 3903, 3948, 3994, 3994, 3994, 3994, 3994, 3994, 3994, 3948, 3994, 3994, 3994, 3994, 3948, 3994, 3948, 3948, 3948, 3948, 3948, 3948, 3948, 3948, 3948, 3948, 3948, 3948, 3994, 3994, 3994, 3994, 3994, 3994, 3994, 3994, 3994, 3994, 3948, 3948, 3948, 3948, 3948, 3948, 3994, 3994, 3994, 4041, 4041, 4041, 4041, 3994, 3994, 3994, 3994, 3994, 3994, 3994, 3994, 3994, 3994, 3994, 3994, 3994, 3994, 3994, 3994, 3994, 3994, 3994, 3948, 3948, 3948, 3948, 3903, 3903, 3859, 3859, 3859, 3859, 3859, 3816, 3816, 3816, 3816, 3774, 3732, 3732, 3692, 0, 0, 0, 0, 0, 0, 0, 0
523, 523, 523, 523, 523, 523, 523, 522, 0, 0, 526, 526, 526, 526, 526, 528, 529, 529, 535, 536, 536, 536, 536, 536, 537, 537, 539, 540, 540, 541, 540, 540, 541, 541, 543, 543, 544, 549, 549, 549, 549, 550, 550, 551, 552, 553, 554, 559, 559, 560, 560, 561, 562, 562, 562, 563, 564, 564, 565, 567, 569, 570, 571, 571, 572, 574, 575, 577, 578, 579, 579, 580, 581, 585, 586, 587, 587, 588, 588, 588, 588, 590, 592, 593, 593, 596, 597, 597, 598, 599, 601, 602, 603, 603, 604, 604, 606, 607, 608, 610, 611, 612, 614, 616, 616, 618, 618, 619, 623, 624, 627, 627, 627, 628, 628, 629, 630, 635, 635, 636, 636, 637, 640, 642, 643, 644, 644, 646, 646, 646, 647, 649, 650, 653, 653, 654, 654, 655, 655, 658, 659, 661, 661, 664, 666, 667, 668, 670, 670, 671, 671, 674, 676, 678, 679, 680, 682, 686, 686, 687, 687, 688, 690, 691, 693, 694, 697, 697, 698, 700, 701, 703, 704, 706, 707, 708, 708, 710, 711, 717, 719, 720, 722, 722, 723, 723, 725, 727, 727, 728, 730, 731, 733, 734, 734, 741, 741, 742, 744, 746, 747, 749, 750, 752, 755, 755, 757, 759, 761, 762, 764, 767, 771, 773, 773, 773, 774, 774, 776, 778, 781, 783, 785, 787, 789, 790, 792, 794, 796, 798, 800, 803, 803, 805, 807, 809, 809, 811, 815, 817, 819, 823, 825, 825, 827, 829, 831, 833, 833, 835, 837, 839, 843, 843, 847, 849, 851, 851, 854, 856, 858, 860, 864, 867, 869, 871, 875, 878, 878, 882, 882, 885, 889, 891, 891, 894, 896, 898, 901, 901, 903, 906, 906, 908, 908, 913, 918, 918, 925, 930, 933, 935, 935, 938, 940, 943, 943, 946, 946, 946, 948, 956, 962, 967, 967, 967, 973, 973, 975, 978, 981, 987, 989, 992, 1001, 1001, 1004, 1004, 1007, 1010, 1016, 1019, 1022, 1025, 1025, 1028, 1031, 1034, 1038, 1038, 1041, 1041, 1050, 1060, 1063, 1067, 1070, 1073, 1073, 1077, 1077, 1080, 1080, 1080, 1097, 1101, 1105, 1105, 1108, 1108, 1108, 1112, 1119, 1119, 1126, 1130, 1134, 1134, 1138, 1141, 1145, 1149, 1157, 1161, 1165, 1169, 1173, 1173, 1181, 1189, 1193, 1197, 1197, 1202, 1210, 1210, 1214, 1214, 1219, 1223, 1227, 1236, 1245, 1250, 1250, 1255, 1259, 1264, 1264, 1268, 1273, 1278, 1288, 1297, 1307, 1307, 1317, 1317, 1322, 1328, 1328, 1333, 1338, 1343, 1349, 1354, 1354, 1359, 1365, 1370, 1370, 1376, 1381, 1387, 1392, 1398, 1404, 1410, 1415, 1421, 1421, 1421, 1427, 1470, 1470, 1470, 1489, 1489, 4241, 4241, 4241, 4241, 4241, 4190, 4190, 4190, 4139, 4139, 4139, 4139, 4139, 4139, 4139, 4139, 4139, 4139, 4139, 4139, 4139, 4139, 4139, 4139, 4139, 4190, 4190, 4190, 4190, 4190, 4190, 4190, 4139, 4190, 4089, 4089, 4089, 4089, 4041, 4041, 4041, 4041, 4041, 4089, 4089, 4041, 4089, 4089, 4089, 4089, 4089, 4041, 4041, 4041, 4041, 4089, 4089, 4089, 4089, 4190, 4139, 4089, 4089, 4041, 4041, 4041, 4041, 4041, 4041, 4041, 4041, 4041, 4041, 3994, 3994, 3994, 4041, 4041, 3994, 4041, 4041, 4041, 4041, 4041, 4041, 4041, 4041, 4041, 4041, 4041, 3994, 3994, 3994, 3994, 4041, 4041, 4041, 4041, 3994, 4041, 4041, 4041, 4041, 3994, 3994, 3994, 3994, 3994, 3948, 3948, 3903, 3903, 3948, 3948, 3903, 3948, 3994, 3994, 3994, 3994, 3994, 3994, 3948, 3948, 3948, 3994, 3994, 3994, 3994, 3994, 3994, 3994, 3994, 3994, 3994, 3994, 3994, 3994, 3994, 3994, 3994, 3994, 3994, 3994, 3994, 3994, 3994, 3994, 4041, 4041, 3994, 3994, 3994, 3994, 3994, 3994, 3994, 3994, 3994, 3994, 3994, 3994, 4041, 4041, 4041, 4041, 4041, 4041, 4041, 3994, 3994, 3994, 3994, 3994, 3994, 3994, 3994, 3994, 3994, 3994, 3994, 3994, 3994, 3994, 3994, 3994, 3994, 3948, 3948, 3903, 3903, 3903, 3903, 3859, 3903, 3859, 3816, 3816, 3816, 3816, 3774, 3774, 3732, 3692, 0, 0, 0, 0, 0, 0, 0, 0
523, 521, 522, 522, 522, 0, 0, 0, 0, 0, 0, 526, 526, 526, 528, 529, 529, 529, 534, 535, 536, 536, 536, 536, 537, 537, 538, 540, 540, 540, 540, 540, 541, 541, 543, 543, 542, 548, 549, 548, 549, 550, 550, 551, 551, 551, 559, 559, 560, 560, 560, 561, 562, 562, 562, 563, 564, 564, 565, 567, 570, 571, 572, 572, 574, 576, 576, 578, 579, 579, 580, 580, 581, 584, 585, 586, 587, 588, 588, 588, 588, 589, 591, 593, 594, 596, 597, 597, 598, 599, 601, 603, 603, 604, 604, 606, 607, 608, 609, 611, 611, 612, 614, 616, 616, 618, 618, 618, 621, 625, 625, 627, 627, 628, 628, 629, 630, 635, 636, 635, 636, 638, 640, 642, 643, 644, 644, 646, 646, 646, 647, 649, 650, 653, 653, 654, 654, 655, 655, 658, 659, 659, 662, 664, 666, 668, 668, 670, 670, 671, 671, 672, 676, 679, 682, 683, 682, 686, 686, 687, 687, 688, 691, 691, 693, 694, 696, 697, 698, 700, 703, 704, 704, 706, 707, 707, 708, 708, 710, 716, 719, 720, 722, 722, 723, 725, 727, 727, 728, 728, 730, 731, 733, 734, 739, 741, 741, 742, 744, 746, 746, 749, 749, 752, 755, 757, 757, 759, 761, 761, 762, 767, 771, 771, 773, 773, 774, 774, 776, 780, 781, 783, 785, 787, 789, 790, 792, 794, 796, 798, 800, 803, 803, 807, 807, 809, 811, 811, 815, 817, 819, 823, 825, 825, 827, 829, 831, 833, 833, 835, 835, 837, 841, 843, 851, 851, 851, 851, 854, 858, 858, 860, 864, 864, 867, 871, 875, 878, 880, 882, 885, 887, 889, 891, 891, 894, 896, 896, 901, 901, 901, 906, 908, 908, 908, 913, 918, 918, 923, 928, 930, 933, 935, 938, 940, 943, 943, 946, 946, 946, 948, 956, 962, 967, 967, 967, 973, 973, 975, 975, 978, 987, 989, 992, 998, 998, 1001, 1001, 1004, 1013, 1019, 1022, 1022, 1025, 1028, 1031, 1034, 1034, 1038, 1038, 1041, 1041, 1050, 1060, 1063, 1067, 1070, 1073, 1073, 1077, 1080, 1080, 1084, 1090, 1094, 1101, 1105, 1105, 1105, 1108, 1108, 1115, 1119, 1119, 1126, 1130, 1134, 1134, 1138, 1145, 1149, 1153, 1157, 1161, 1165, 1169, 1173, 1173, 1181, 1185, 1193, 1197, 1197, 1206, 1206, 1210, 1214, 1214, 1219, 1223, 1227, 1236, 1245, 1250, 1250, 1255, 1259, 1264, 1268, 1268, 1273, 1278, 1283, 1292, 1302, 1307, 1312, 1317, 1322, 1322, 1328, 1333, 1338, 1343, 1349, 1354, 1354, 1359, 1365, 1365, 1370, 1376, 1381, 1387, 1392, 1398, 1410, 1410, 1415, 1421, 1421, 1427, 1427, 1427, 1427, 1489, 1489, 1489, 4241, 4241, 4241, 4241, 4241, 4241, 4190, 4190, 4190, 4139, 4139, 4139, 4139, 4139, 4139, 4139, 4139, 4139, 4139, 4139, 4139, 4139, 4139, 4139, 4190, 4190, 4190, 4190, 4190, 4190, 4241, 4190, 4190, 4190, 4139, 4139, 4139, 4089, 4089, 4089, 4041, 4041, 4089, 4089, 4139, 4139, 4139, 4139, 4139, 4139, 4089, 4089, 4089, 4041, 4041, 4089, 4089, 4089, 4139, 4190, 4089, 4089, 4089, 4089, 4041, 4041, 4041, 4041, 4041, 4041, 4041, 4041, 4041, 4041, 4041, 3994, 4041, 4041, 4041, 4041, 4041, 4041, 4041, 4041, 4041, 4041, 4041, 4041, 4041, 4041, 4041, 3994, 3994, 3994, 4041, 4041, 4041, 4041, 4041, 4041, 4041, 4041, 3994, 3994, 3994, 3994, 3994, 3994, 3948, 3948, 3948, 3948, 3948, 3948, 3948, 3994, 3994, 4041, 3994, 3994, 3994, 3948, 3948, 3994, 3994, 3994, 3994, 4041, 3994, 3994, 4041, 3994, 3994, 3994, 3994, 4041, 3994, 3994, 3994, 3994, 3994, 3994, 3994, 3994, 3994, 4041, 4041, 4041, 4041, 4041, 3994, 3994, 3994, 3994, 3994, 3994, 3994, 3994, 3994, 3994, 3994, 3994, 4041, 4041, 4041, 4041, 4041, 4041, 3994, 3994, 3994, 3994, 3994, 3994, 3994, 3994, 3994, 3994, 3994, 3994, 3994, 3994, 3994, 3994, 3994, 3994, 3994, 3994, 3994, 3948, 3903, 3948, 3903, 3903, 3903, 3859, 3859, 3816, 3816, 3816, 3732, 3732, 3732, 3692, 0, 0, 0, 0, 0, 0, 0, 0
522, 522, 522, 522, 0, 0, 0, 0, 0, 0, 0, 526, 526, 526, 528, 528, 529, 529, 534, 535, 536, 536, 536, 536, 536, 537, 538, 540, 541, 541, 541, 540, 541, 542, 543, 544, 543, 548, 548, 548, 549, 550, 550, 550, 551, 551, 559, 560, 560, 560, 560, 561, 562, 562, 563, 564, 564, 564, 564, 565, 570, 571, 572, 572, 574, 575, 576, 578, 579, 580, 580, 580, 582, 584, 585, 586, 587, 587, 588, 588, 588, 590, 591, 593, 595, 596, 597, 598, 599, 599, 601, 601, 603, 604, 604, 607, 608, 608, 609, 611, 612, 612, 613, 616, 618, 618, 619, 618, 621, 622, 623, 627, 627, 628, 629, 630, 634, 635, 636, 636, 637, 637, 640, 642, 643, 644, 644, 644, 646, 646, 647, 649, 652, 653, 653, 654, 654, 657, 658, 659, 659, 661, 662, 664, 666, 668, 670, 670, 670, 670, 671, 674, 676, 679, 680, 682, 683, 684, 686, 687, 687, 688, 691, 691, 693, 694, 694, 697, 698, 701, 703, 704, 706, 707, 707, 708, 710, 710, 710, 714, 717, 720, 720, 722, 722, 723, 727, 727, 728, 728, 730, 733, 736, 739, 741, 741, 742, 742, 744, 746, 746, 749, 749, 750, 754, 755, 759, 759, 761, 761, 762, 767, 769, 771, 773, 773, 774, 774, 780, 780, 781, 783, 785, 787, 787, 790, 792, 794, 796, 800, 800, 803, 805, 807, 809, 809, 811, 813, 815, 817, 819, 823, 825, 825, 827, 829, 831, 833, 833, 833, 835, 837, 841, 843, 851, 851, 851, 854, 854, 858, 858, 860, 862, 864, 869, 873, 875, 878, 880, 882, 885, 887, 889, 891, 891, 894, 896, 896, 898, 898, 901, 908, 908, 908, 910, 915, 920, 920, 923, 925, 930, 933, 933, 940, 940, 943, 943, 946, 946, 948, 948, 956, 962, 967, 967, 970, 973, 973, 975, 975, 978, 987, 989, 992, 998, 998, 1001, 1004, 1004, 1013, 1022, 1022, 1025, 1028, 1028, 1031, 1031, 1034, 1038, 1038, 1038, 1041, 1050, 1060, 1063, 1067, 1070, 1073, 1077, 1077, 1080, 1087, 1090, 1094, 1097, 1101, 1101, 1105, 1105, 1108, 1112, 1115, 1119, 1123, 1126, 1130, 1134, 1134, 1138, 1145, 1149, 1153, 1157, 1161, 1165, 1169, 1173, 1173, 1181, 1185, 1193, 1193, 1197, 1202, 1206, 1210, 1214, 1214, 1219, 1223, 1227, 1236, 1245, 1245, 1250, 1255, 1259, 1259, 1264, 1268, 1268, 1273, 1283, 1292, 1307, 1312, 1317, 1317, 1322, 1322, 1328, 1333, 1338, 1349, 1354, 1359, 1359, 1365, 1365, 1365, 1370, 1376, 1381, 1387, 1392, 1404, 1410, 1410, 1415, 1421, 1421, 1427, 1427, 1427, 0, 1496, 1489, 1489, 1496, 4241, 4241, 4241, 4241, 4241, 4190, 4190, 4190, 4190, 4190, 4190, 4139, 4190, 4190, 4190, 4190, 4190, 4190, 4139, 4139, 4139, 4190, 4190, 4190, 4190, 4190, 4190, 4241, 4190, 4241, 4190, 4190, 4190, 4139, 4089, 4139, 4089, 4089, 4041, 4041, 4041, 4089, 4139, 4139, 4190, 4190, 4190, 4139, 4139, 4139, 4089, 4089, 4089, 4089, 4139, 4139, 4190, 4190, 4190, 4139, 4190, 4139, 4089, 4089, 4041, 4041, 4041, 4041, 4041, 4041, 4041, 4041, 4041, 4041, 3994, 4041, 4041, 4041, 4041, 4041, 4041, 4041, 4041, 4041, 4041, 4089, 4089, 4041, 4041, 4041, 3994, 4041, 4041, 4041, 4041, 4041, 4041, 4041, 4041, 4041, 4041, 4041, 3994, 3994, 4041, 4041, 3994, 3994, 3948, 3948, 3948, 3948, 3948, 3903, 3948, 3948, 4041, 3994, 3994, 3994, 3948, 3948, 3994, 3994, 3994, 3994, 4041, 4041, 4041, 4041, 4041, 4041, 4041, 4041, 4041, 4041, 4041, 3994, 3994, 3994, 3994, 3994, 3994, 3994, 4041, 4041, 4041, 4041, 4041, 4041, 3994, 4041, 3994, 3994, 3994, 3994, 3994, 3994, 3994, 3994, 3994, 4041, 4041, 4041, 4041, 4041, 4041, 3994, 3994, 3994, 3994, 3994, 3994, 3994, 3994, 3994, 3994, 3994, 3994, 3994, 3994, 3994, 3994, 3994, 3994, 3994, 3994, 3994, 3948, 3903, 3903, 3903, 3859, 3859, 3859, 3859, 3816, 3816, 3816, 3774, 3774, 3774, 3732, 0, 0, 0, 0, 0, 0, 0, 0
522, 521, 522, 522, 522, 0, 0, 0, 0, 0, 0, 527, 527, 527, 528, 529, 529, 532, 534, 535, 536, 536, 536, 536, 537, 537, 538, 540, 541, 541, 541, 540, 541, 542, 543, 544, 543, 548, 548, 549, 550, 550, 550, 550, 550, 558, 559, 559, 560, 559, 560, 560, 561, 562, 563, 564, 564, 564, 564, 565, 570, 571, 572, 572, 573, 576, 577, 579, 579, 580, 581, 581, 582, 584, 585, 585, 587, 587, 588, 588, 588, 589, 591, 594, 595, 597, 598, 598, 599, 600, 601, 601, 602, 603, 606, 607, 608, 609, 610, 611, 612, 612, 613, 616, 618, 618, 619, 619, 621, 621, 622, 625, 627, 628, 628, 631, 635, 635, 636, 636, 637, 638, 640, 642, 643, 644, 644, 644, 646, 646, 647, 649, 652, 653, 654, 654, 655, 657, 658, 659, 659, 661, 662, 664, 667, 668, 670, 670, 670, 670, 671, 672, 679, 679, 680, 682, 683, 684, 686, 687, 687, 688, 691, 691, 693, 693, 694, 696, 697, 700, 703, 704, 704, 707, 707, 708, 710, 711, 713, 716, 717, 719, 720, 722, 722, 723, 725, 727, 727, 728, 730, 733, 736, 739, 741, 741, 742, 742, 744, 746, 747, 749, 750, 752, 755, 757, 757, 759, 761, 761, 762, 766, 767, 771, 773, 773, 774, 774, 776, 778, 781, 783, 785, 787, 787, 789, 792, 794, 796, 800, 800, 802, 803, 807, 809, 809, 811, 813, 815, 817, 819, 823, 825, 825, 827, 829, 831, 833, 833, 835, 835, 839, 841, 843, 847, 849, 851, 851, 856, 858, 858, 860, 862, 867, 869, 873, 878, 878, 880, 885, 887, 887, 889, 891, 891, 894, 896, 896, 903, 898, 901, 906, 908, 910, 910, 915, 920, 920, 923, 928, 930, 933, 933, 938, 940, 943, 943, 946, 948, 948, 951, 956, 962, 964, 967, 967, 973, 973, 975, 975, 978, 987, 989, 992, 998, 1001, 1004, 1004, 1007, 1010, 1022, 1022, 1025, 1028, 1028, 1031, 1034, 1038, 1038, 1038, 1044, 1041, 1050, 1060, 1063, 1067, 1070, 1070, 1073, 1077, 1084, 1090, 1090, 1094, 1094, 1101, 1105, 1105, 1108, 1108, 1112, 1115, 1119, 1123, 1126, 1130, 1134, 1134, 1138, 1145, 1149, 1153, 1161, 1165, 1165, 1169, 1173, 1177, 1181, 1185, 1189, 1193, 1197, 1202, 1206, 1210, 1214, 1214, 1219, 1227, 1232, 1236, 1245, 1245, 1250, 1255, 1259, 1264, 1264, 1264, 1273, 1278, 1283, 1292, 1307, 1307, 1317, 1322, 1322, 1328, 1328, 1333, 1343, 1349, 1354, 1359, 1359, 1365, 1365, 1365, 1370, 1376, 1381, 1387, 1392, 1404, 1410, 1415, 1421, 1427, 1427, 1427, 1427, 1427, 1445, 1496, 1496, 1496, 1496, 1496, 4241, 4241, 4241, 4241, 4241, 4190, 4190, 4190, 4190, 4190, 4190, 4190, 4190, 4190, 4190, 4190, 4190, 4190, 4190, 4190, 4190, 4190, 4190, 4190, 4241, 4241, 4241, 4241, 4241, 4190, 4190, 4190, 4139, 4139, 4139, 4139, 4089, 4089, 4089, 4089, 4139, 4139, 4139, 4190, 4190, 4190, 4190, 4190, 4139, 4139, 4139, 4139, 4139, 4190, 4190, 4190, 4190, 4190, 4190, 4190, 4190, 4139, 4139, 4139, 4089, 4089, 4089, 4089, 4089, 4041, 4041, 4041, 4041, 4041, 4041, 4041, 4041, 4041, 4041, 4041, 4041, 4041, 4041, 4041, 4089, 4089, 4041, 4041, 4041, 4041, 4041, 4041, 4041, 4041, 4041, 4041, 4041, 4041, 4041, 4041, 4041, 4041, 4041, 4041, 4041, 3994, 3994, 3994, 3948, 3948, 3994, 3948, 3948, 3994, 3994, 4041, 4041, 4041, 3994, 3994, 4041, 4041, 4041, 4041, 4041, 4041, 4041, 4041, 4041, 4041, 4041, 4041, 4041, 4041, 4041, 4041, 4041, 4041, 4089, 4041, 3994, 4041, 3994, 4041, 4041, 4041, 4041, 4041, 4041, 3994, 4041, 3994, 3994, 3994, 3994, 3994, 3994, 3994, 3994, 4041, 4041, 4041, 4041, 4041, 4041, 4041, 4041, 3994, 3994, 3994, 3994, 3994, 3994, 3994, 3994, 4041, 3994, 4041, 4041, 4041, 4041, 4041, 4041, 4041, 4041, 3994, 3994, 3948, 3948, 3948, 3948, 3948, 3903, 3859, 3859, 3816, 3816, 3816, 3774, 3816, 3774, 3732, 0, 0, 0, 0, 0, 0, 0, 0
522, 521, 521, 521, 0, 0, 0, 0, 0, 0, 0, 526, 526, 526, 528, 529, 529, 532, 534, 535, 535, 536, 536, 536, 537, 537, 538, 540, 541, 541, 541, 541, 542, 542, 543, 545, 546, 547, 548, 549, 550, 551, 550, 552, 554, 555, 558, 559, 559, 559, 560, 560, 561, 562, 563, 564, 564, 564, 565, 567, 570, 571, 572, 572, 573, 575, 577, 579, 580, 580, 581, 581, 583, 584, 585, 585, 587, 587, 588, 588, 588, 589, 591, 594, 596, 597, 598, 598, 599, 600, 601, 601, 602, 603, 607, 608, 609, 609, 610, 611, 612, 612, 614, 616, 618, 619, 619, 620, 621, 622, 622, 625, 625, 627, 628, 630, 634, 635, 635, 636, 637, 637, 640, 641, 643, 643, 644, 644, 646, 646, 647, 649, 652, 653, 654, 654, 654, 657, 658, 659, 659, 661, 662, 663, 666, 668, 670, 670, 670, 670, 671, 675, 679, 679, 680, 682, 682, 683, 684, 686, 687, 688, 691, 691, 693, 693, 694, 696, 697, 701, 703, 704, 704, 706, 707, 708, 710, 713, 714, 716, 717, 719, 720, 722, 722, 723, 727, 727, 727, 728, 730, 733, 734, 738, 739, 741, 742, 742, 744, 746, 747, 752, 754, 754, 757, 757, 759, 759, 761, 761, 762, 766, 769, 771, 773, 773, 774, 774, 778, 780, 781, 785, 785, 787, 789, 789, 792, 794, 796, 800, 800, 802, 803, 805, 807, 809, 813, 815, 817, 817, 819, 823, 825, 825, 827, 831, 833, 833, 835, 835, 837, 841, 843, 845, 847, 847, 851, 851, 856, 858, 858, 860, 862, 862, 869, 871, 875, 878, 880, 885, 887, 887, 889, 891, 891, 894, 894, 896, 898, 898, 903, 906, 910, 910, 913, 915, 918, 918, 920, 928, 930, 933, 935, 938, 940, 943, 943, 946, 946, 948, 951, 956, 962, 964, 967, 967, 970, 973, 975, 975, 984, 987, 989, 989, 995, 1001, 1004, 1007, 1007, 1010, 1016, 1022, 1025, 1028, 1031, 1034, 1034, 1038, 1038, 1038, 1041, 1041, 1050, 1060, 1063, 1067, 1067, 1067, 1073, 1077, 1087, 1090, 1090, 1094, 1097, 1101, 1105, 1105, 1108, 1108, 1112, 1115, 1119, 1119, 1123, 1126, 1134, 1134, 1141, 1149, 1149, 1153, 1161, 1165, 1165, 1169, 1173, 1177, 1181, 1185, 1189, 1193, 1197, 1202, 1210, 1214, 1214, 1219, 1223, 1227, 1232, 1236, 1245, 1245, 1250, 1255, 1259, 1264, 1264, 1264, 1268, 1273, 1288, 1292, 1302, 1307, 1312, 1317, 1322, 1322, 1328, 1338, 1349, 1354, 1354, 1359, 1359, 1365, 1365, 1365, 1370, 1376, 1381, 1392, 1398, 1410, 1410, 1415, 1421, 1427, 1427, 1427, 1433, 1445, 1445, 1464, 1496, 1496, 1496, 1496, 4241, 4241, 4241, 4241, 4241, 4241, 4241, 4241, 4241, 4241, 4190, 4241, 4241, 4190, 4190, 4190, 4190, 4190, 4190, 4190, 4190, 4190, 4190, 4190, 4190, 4241, 4241, 4241, 4241, 4241, 4241, 4190, 4190, 4190, 4139, 4139, 4089, 4089, 4139, 4139, 4139, 4139, 4190, 4190, 4190, 4190, 4190, 4190, 4190, 4139, 4139, 4139, 4139, 4190, 4190, 4190, 4190, 4190, 4190, 4190, 4190, 4190, 4190, 4190, 4139, 4139, 4139, 4139, 4139, 4089, 4089, 4041, 4041, 4041, 4041, 4041, 4041, 4089, 4041, 4041, 4041, 4041, 4041, 4089, 4089, 4089, 4089, 4041, 4041, 4041, 4041, 4041, 4041, 4041, 4041, 4041, 4041, 4041, 4041, 4041, 4041, 4041, 4041, 4041, 4041, 4041, 4041, 3994, 3994, 3994, 3994, 3994, 3994, 3994, 3994, 4041, 4041, 4041, 4041, 4041, 4041, 4041, 4041, 4041, 4041, 4041, 4089, 4041, 4041, 4041, 4041, 4041, 4041, 4041, 4041, 4041, 4041, 4041, 4089, 4089, 3994, 4041, 3994, 4041, 4041, 4041, 4041, 4041, 4041, 4041, 4041, 4041, 3994, 4041, 3994, 3994, 3994, 4041, 4041, 4041, 4041, 4041, 4041, 4041, 4041, 4041, 4041, 3994, 3994, 3994, 3994, 3994, 4041, 4041, 3994, 4041, 4041, 4041, 4041, 4041, 4041, 4041, 4089, 4041, 4041, 4041, 3994, 3994, 3948, 3948, 3903, 3903, 3903, 3859, 3859, 3859, 3859, 3859, 3816, 3816, 3816, 3732, 0, 0, 0, 0, 0, 0, 0, 0
522, 521, 521, 0, 0, 0, 0, 0, 0, 0, 0, 525, 525, 526, 526, 529, 528, 528, 535, 535, 536, 536, 536, 536, 536, 537, 537, 540, 541, 541, 541, 541, 542, 543, 544, 545, 546, 548, 548, 549, 550, 550, 550, 553, 554, 554, 558, 559, 559, 559, 560, 560, 561, 562, 563, 564, 564, 565, 565, 569, 571, 571, 572, 572, 574, 575, 577, 579, 580, 581, 582, 582, 583, 584, 584, 585, 587, 587, 588, 588, 589, 591, 592, 594, 596, 597, 598, 598, 600, 601, 602, 602, 603, 604, 607, 608, 609, 609, 610, 610, 611, 612, 613, 616, 618, 619, 619, 620, 622, 623, 624, 625, 625, 627, 628, 630, 631, 635, 635, 636, 637, 638, 640, 641, 642, 643, 643, 644, 646, 646, 647, 649, 653, 654, 654, 654, 654, 657, 659, 661, 661, 661, 663, 664, 666, 668, 670, 670, 670, 671, 672, 676, 678, 679, 680, 680, 682, 682, 684, 686, 687, 688, 691, 691, 693, 693, 694, 696, 697, 700, 701, 703, 704, 706, 707, 708, 708, 711, 713, 714, 716, 719, 719, 722, 723, 725, 727, 727, 728, 728, 730, 733, 736, 738, 739, 739, 742, 742, 742, 746, 747, 752, 754, 754, 757, 757, 757, 759, 759, 761, 762, 766, 769, 771, 773, 773, 774, 776, 778, 780, 781, 783, 785, 787, 787, 789, 792, 794, 798, 800, 800, 800, 802, 803, 807, 809, 813, 815, 817, 819, 821, 823, 825, 825, 829, 831, 833, 833, 835, 835, 839, 843, 845, 847, 849, 849, 851, 854, 856, 858, 858, 860, 862, 862, 864, 869, 873, 878, 878, 882, 887, 887, 889, 891, 891, 894, 894, 896, 898, 901, 903, 906, 910, 913, 913, 915, 915, 918, 920, 925, 930, 933, 935, 938, 940, 943, 943, 948, 948, 951, 954, 959, 964, 964, 967, 967, 970, 973, 975, 975, 984, 984, 987, 989, 992, 1001, 1004, 1007, 1010, 1010, 1016, 1025, 1025, 1028, 1031, 1034, 1034, 1038, 1038, 1038, 1041, 1054, 1060, 1063, 1063, 1067, 1067, 1070, 1077, 1080, 1087, 1087, 1090, 1090, 1094, 1101, 1105, 1105, 1108, 1112, 1115, 1115, 1119, 1119, 1123, 1130, 1134, 1138, 1141, 1149, 1153, 1157, 1161, 1165, 1165, 1169, 1173, 1177, 1181, 1185, 1189, 1193, 1197, 1206, 1214, 1214, 1219, 1219, 1223, 1227, 1236, 1241, 1245, 1250, 1255, 1255, 1259, 1264, 1264, 1268, 1273, 1278, 1288, 1292, 1302, 1307, 1312, 1312, 1317, 1322, 1328, 1338, 1349, 1354, 1354, 1359, 1359, 1365, 1365, 1365, 1370, 1376, 1381, 1392, 1404, 1410, 1410, 1415, 1421, 1427, 1427, 1433, 1433, 1445, 1452, 1464, 1489, 1496, 1496, 1496, 4241, 4241, 4241, 4241, 4241, 4241, 4241, 4241, 4241, 4241, 4241, 4241, 4241, 4241, 4241, 4190, 4190, 4190, 4190, 4190, 4190, 4190, 4190, 4190, 4190, 4241, 4241, 4241, 4241, 4241, 4241, 4241, 4190, 4190, 4190, 4190, 4139, 4139, 4139, 4139, 4190, 4190, 4190, 4190, 4190, 4190, 4190, 4190, 4190, 4139, 4139, 4139, 4139, 4139, 4190, 4190, 4190, 4190, 4190, 4190, 4190, 4190, 4190, 4190, 4190, 4190, 4190, 4190, 4190, 4190, 4089, 4089, 4089, 4089, 4089, 4089, 4089, 4089, 4089, 4089, 4089, 4089, 4089, 4139, 4139, 4089, 4089, 4089, 4089, 4089, 4041, 4041, 4041, 4041, 4041, 4041, 4041, 4041, 4041, 4089, 4041, 4041, 4041, 4041, 4089, 4041, 4041, 4041, 3994, 3994, 4041, 4041, 3994, 4041, 4041, 4041, 4041, 4041, 4041, 4041, 4041, 4041, 4041, 4041, 4041, 4089, 4041, 4041, 4041, 4041, 4041, 4041, 4041, 4041, 4041, 4041, 4041, 4089, 4089, 4139, 4041, 4041, 4041, 4041, 4041, 4041, 4041, 4041, 4041, 4041, 4041, 4041, 3994, 4041, 4041, 4041, 3994, 4041, 4041, 4041, 4041, 4041, 4041, 4041, 4041, 4041, 4041, 4041, 3994, 4041, 3994, 4041, 4041, 4041, 4041, 4041, 4041, 4089, 4089, 4089, 4089, 4089, 4089, 4089, 4089, 4089, 4041, 3994, 3994, 3948, 3948, 3948, 3903, 3859, 3859, 3859, 3859, 3859, 3816, 3816, 3816, 3732, 0, 0, 0, 0, 0, 0, 0, 0
